ply
format ascii 1.0
element vertex 1164
property float x
property float y
property float z
property uchar red
property uchar green
property uchar blue
end_header
22.404417 -11.487151 37.056198 199 165 168
22.692839 -9.935829 37.515274 111 93 85
21.807018 -10.629937 36.022594 187 140 119
21.625374 -10.231739 35.746815 203 164 139
22.515965 -10.064693 37.210289 193 153 135
21.387104 -9.995492 35.289314 203 164 139
21.809511 -10.511394 35.947464 192 146 124
22.280285 -11.326755 36.691570 198 165 168
22.521896 -9.930499 37.094013 189 149 133
22.306520 -11.920173 36.681309 162 125 127
22.790646 -11.839932 37.442608 183 144 146
21.942043 -10.641733 35.991451 176 129 112
21.568731 -9.939203 35.366623 204 162 139
22.402521 -9.678645 36.671047 159 133 125
21.630550 -9.822226 35.352032 202 156 133
23.015076 -12.615173 37.583755 142 112 114
22.457718 -11.900126 36.656200 162 125 127
22.348703 -11.344597 36.497452 192 158 161
22.233618 -11.088757 36.323914 210 180 182
22.480616 -11.889020 36.640568 162 125 127
22.265507 -10.981246 36.296902 202 168 168
22.380493 -9.581211 36.494797 145 124 116
22.191460 -10.686328 36.130440 156 110 93
22.496977 -11.644751 36.596920 169 130 132
21.700157 -9.892482 35.234783 192 144 125
21.680134 -9.784064 35.229591 189 142 122
22.024170 -9.751292 35.773609 198 154 134
22.576447 -11.878597 36.647675 163 127 127
22.478527 -11.293235 36.451511 191 154 158
21.909481 -10.138620 35.552338 205 161 140
22.374027 -10.907447 36.281803 199 157 153
22.193510 -9.547034 35.949387 183 152 135
22.045597 -10.303328 35.671196 194 151 131
22.257071 -9.416095 36.021832 123 103 93
22.975159 -12.464676 37.131748 132 105 106
22.551025 -11.182698 36.426296 193 159 162
22.450518 -10.943931 36.301174 188 146 144
22.037569 -9.751494 35.638176 193 148 129
22.215225 -9.562578 35.919964 196 164 147
21.984375 -10.113615 35.453804 196 150 131
22.504187 -10.950128 36.280560 188 148 145
22.788820 -11.982409 36.695648 152 118 119
22.259140 -9.543003 35.846737 195 160 143
22.344534 -9.354222 35.969193 115 98 91
22.925627 -12.308046 36.855057 133 102 105
22.674694 -11.355792 36.461178 182 148 151
22.305655 -10.507574 35.888702 162 118 106
22.100580 -9.727804 35.534065 194 146 127
22.347078 -9.428795 35.947174 187 153 138
22.633760 -11.097751 36.339420 184 150 150
22.591713 -11.017487 36.300190 179 143 141
22.717588 -11.476016 36.463181 176 140 142
22.905390 -12.263168 36.616680 120 92 94
22.793446 -11.766054 36.460129 170 137 140
22.745474 -11.136906 36.357784 176 141 140
22.620630 -10.828876 36.188187 127 84 74
22.088379 -9.717917 35.330364 192 142 124
22.824278 -11.577634 36.441681 180 147 149
22.889191 -12.069582 36.508476 139 106 107
22.827827 -11.442961 36.423985 182 149 150
22.666580 -10.854705 36.191841 127 83 73
22.283827 -10.274426 35.557594 177 129 114
22.277441 -9.707312 35.538059 189 141 120
22.847181 -11.316901 36.389336 180 149 145
22.348442 -10.345468 35.629589 170 123 109
22.202940 -9.905415 35.376961 187 135 114
22.543989 -9.309602 35.934235 142 114 104
22.888313 -11.190747 36.386547 163 127 123
22.948784 -11.737761 36.466263 166 134 137
22.521133 -10.551662 35.790947 151 106 94
22.309603 -10.227104 35.454830 167 120 104
22.948437 -11.521957 36.420120 169 136 139
22.791128 -10.852386 36.166969 127 82 72
22.274265 -9.746164 35.366882 180 130 107
22.531027 -9.603005 35.761955 191 147 127
23.088577 -12.258540 36.621517 99 72 73
23.027987 -12.050827 36.492210 136 106 105
23.036072 -11.977331 36.477531 134 104 102
22.978266 -11.367849 36.381298 149 116 112
22.670668 -9.469699 35.913326 184 143 127
22.559832 -10.471796 35.680771 152 107 95
22.658443 -9.534802 35.837631 189 146 127
22.813261 -9.400957 36.082794 179 142 126
22.809731 -9.295056 36.078800 148 124 114
23.077499 -11.820456 36.464825 139 109 105
23.016663 -11.152273 36.374092 115 75 65
22.538174 -9.559783 35.600773 192 146 126
23.111631 -11.271858 36.391266 110 70 61
23.049885 -11.024685 36.296097 132 93 82
23.215818 -11.943152 36.473236 91 57 51
22.545816 -10.434810 35.430130 154 110 98
22.595295 -9.988460 35.518139 180 130 109
23.227524 -11.544260 36.446342 97 61 58
23.109535 -9.299310 36.281342 87 74 66
23.272472 -11.591608 36.463383 92 57 51
22.705561 -10.333421 35.570705 164 119 104
22.680841 -9.983925 35.490334 181 131 112
22.816128 -9.983568 35.689419 179 129 108
22.698166 -9.585829 35.518810 186 136 115
22.884266 -10.245189 35.769253 170 124 105
23.096504 -10.793701 36.073948 147 107 96
23.400263 -11.570836 36.466965 99 63 56
23.464100 -12.188808 36.537182 89 60 57
23.409857 -11.788884 36.488163 94 61 55
23.369854 -11.221143 36.415123 130 91 82
23.452826 -9.325953 36.538837 81 69 62
22.873049 -10.241574 35.587727 170 124 107
22.950060 -9.658834 35.712475 180 130 109
23.276588 -10.942559 36.172337 139 99 88
23.019011 -9.749346 35.789009 174 127 104
23.481916 -9.421426 36.531731 173 140 123
23.410383 -12.130322 36.325367 90 63 59
23.064892 -10.009104 35.850986 179 129 108
23.464924 -9.572503 36.402992 175 134 116
23.079065 -10.712867 35.758488 144 103 93
23.613232 -9.335443 36.572742 118 99 89
23.282343 -11.892891 36.034531 96 65 58
22.911701 -10.531532 35.475578 148 107 96
23.603838 -9.502501 36.552776 175 138 122
22.966927 -11.917766 35.461151 64 47 50
23.190622 -10.977170 35.806480 130 89 80
23.036646 -11.606169 35.555336 105 70 64
23.256033 -10.891724 35.890575 141 100 89
23.097538 -10.650449 35.638405 151 110 100
23.625284 -9.286465 36.447414 135 111 100
23.153103 -10.625918 35.648067 152 112 101
23.513617 -9.568497 36.181767 171 127 111
23.521862 -11.283162 36.115616 123 83 73
23.364624 -11.065138 35.867550 132 92 81
23.392960 -10.891095 35.905777 140 97 87
23.310310 -10.186053 35.756519 170 124 107
23.313635 -10.710440 35.718777 146 106 95
23.441223 -9.126180 35.886425 111 91 80
23.268747 -10.532438 35.605408 152 110 97
23.372496 -10.281644 35.737263 163 121 106
23.731256 -11.356121 36.215542 120 80 69
23.499592 -10.799750 35.833977 140 99 88
23.401340 -10.587476 35.673069 148 108 95
23.561947 -9.486160 35.945324 167 125 107
23.441189 -9.029592 35.762283 32 28 26
23.652744 -11.574946 36.034512 113 72 63
23.543678 -11.021679 35.851456 131 91 80
23.465702 -10.347062 35.747467 184 139 129
23.562077 -9.705460 35.888069 171 124 103
23.571753 -10.276172 35.848114 176 133 122
23.610487 -10.112349 35.884487 169 122 106
23.540155 -9.308628 35.728081 166 126 111
23.530573 -9.163243 35.742264 163 130 115
23.550915 -9.049533 35.753647 83 71 64
23.530310 -9.225432 35.706161 158 121 106
23.571795 -10.530691 35.721359 147 104 92
23.617290 -10.480563 35.799992 147 103 90
23.796528 -9.959131 36.049149 164 115 96
23.780718 -10.126530 36.001961 172 126 110
23.543877 -10.765722 35.584721 130 89 79
23.847948 -10.310372 35.931942 196 151 137
24.077682 -10.039109 36.291523 169 121 103
23.902878 -9.746525 36.043087 162 117 98
23.882877 -9.659286 36.010445 164 121 104
23.086967 -11.084983 34.715652 114 76 67
23.482983 -10.833645 35.308418 125 84 71
23.510866 -10.601588 35.363232 137 95 84
23.687237 -10.605827 35.631088 141 98 86
23.731859 -9.143841 35.706562 156 122 110
23.506802 -10.689385 35.329037 130 90 78
23.869919 -10.423860 35.869080 155 112 99
23.948750 -10.131496 35.990997 171 125 108
23.890730 -9.353920 35.835537 153 113 98
22.699764 -11.223983 33.997246 95 64 57
23.191675 -10.822371 34.743885 114 74 62
23.717844 -10.793178 35.500248 124 82 69
24.174131 -10.479338 36.063984 170 125 110
24.200386 -10.367956 36.097134 158 113 98
24.023447 -9.128090 35.824001 150 114 102
23.088091 -10.833391 34.425148 117 77 68
24.218117 -10.413094 36.090229 174 127 112
24.243301 -10.214917 36.136421 157 111 95
22.919558 -11.435101 34.103436 37 33 33
22.915766 -11.291383 34.123478 100 70 62
22.956621 -10.678701 34.167744 118 78 69
23.202219 -10.689320 34.554462 121 79 68
23.103905 -11.428061 34.342617 90 65 57
24.381649 -9.858172 36.248547 152 108 91
24.470613 -9.759118 36.368069 153 110 95
24.372082 -9.673918 36.224674 153 110 95
23.893419 -10.690615 35.484131 127 84 72
24.185406 -10.645449 35.901028 145 100 88
24.429039 -10.479150 36.231548 155 108 92
23.412271 -10.853877 34.663589 116 76 67
23.595064 -10.788328 34.898720 118 76 65
24.328339 -10.573381 36.004990 151 106 92
24.379492 -10.487008 36.050236 155 110 94
24.480057 -10.178291 36.182438 144 98 83
23.751261 -11.156277 35.085690 108 71 61
23.687349 -11.062649 34.991459 107 69 60
24.446671 -10.329385 36.102528 145 101 85
24.444513 -10.242661 36.133293 142 95 81
24.074369 -8.992738 35.567669 131 103 95
23.970741 -11.684708 35.323269 89 61 54
24.020187 -11.510477 35.398415 105 70 62
23.840754 -11.046164 35.086441 106 68 59
24.166376 -11.847443 35.539738 75 55 54
24.319939 -10.603811 35.741924 139 95 82
24.486431 -10.278926 35.977886 145 99 84
24.449736 -10.470638 35.895359 140 95 80
24.528301 -10.131135 36.006111 148 101 87
24.199562 -9.098977 35.502739 138 102 92
24.329220 -9.721005 35.665813 153 106 90
24.392988 -11.918188 35.725830 76 60 58
24.364000 -11.523071 35.703465 101 68 59
24.058163 -10.895447 35.251480 116 76 66
24.334681 -10.120554 35.635490 153 106 92
24.367559 -11.641660 35.642929 98 69 62
24.074499 -10.802058 35.232952 123 80 69
24.137268 -10.746369 35.317722 124 82 68
24.230772 -9.213255 35.459076 150 111 96
24.477318 -11.946656 35.798161 67 53 51
24.313766 -10.357042 35.554504 136 90 75
24.515123 -11.820107 35.795513 90 63 58
24.331421 -10.755586 35.530140 127 82 69
24.509726 -10.527396 35.794483 136 90 76
24.459492 -10.215918 35.735538 146 99 85
24.332588 -9.689153 35.539806 156 110 93
24.553905 -11.432775 35.788818 99 64 56
24.302864 -9.337574 35.417297 153 112 97
24.064899 -9.141747 35.078701 148 108 95
24.684746 -10.275014 35.934113 141 94 80
24.355671 -9.641166 35.469658 155 108 92
24.539263 -10.670797 35.688988 126 80 65
24.610720 -10.579967 35.810173 129 82 69
24.654076 -11.724404 35.839409 88 61 56
24.509752 -10.025950 35.629330 150 103 90
24.765629 -11.493616 35.935097 99 66 58
24.512846 -10.306539 35.536179 141 94 78
24.164515 -9.425971 35.050777 156 111 95
24.426682 -10.991334 35.404152 107 66 59
24.421759 -10.632162 35.366859 123 76 64
24.453669 -9.329088 35.426498 157 115 100
24.858807 -11.908650 36.009548 80 56 53
24.412071 -10.758183 35.331478 120 78 65
24.450893 -10.605375 35.387749 125 78 66
24.505913 -10.369823 35.459026 136 90 76
24.543276 -10.082864 35.509903 154 107 93
24.673773 -11.415029 35.670605 94 62 56
24.897652 -12.009125 35.969254 55 51 52
24.801367 -11.784984 35.840977 76 51 47
24.766203 -11.583169 35.786686 77 50 46
24.414577 -10.704233 35.256462 122 79 66
24.653072 -9.770913 35.613892 154 107 91
24.595409 -9.484336 35.513905 156 114 98
24.225216 -9.164241 35.016579 152 112 98
24.549353 -11.187518 35.388332 95 61 54
24.501993 -10.593228 35.329338 135 90 77
24.686008 -9.844751 35.584522 157 111 95
24.624252 -9.466585 35.496906 155 113 98
24.581093 -9.498943 35.405888 160 116 101
24.652325 -10.022656 35.457073 157 110 97
24.509209 -11.039741 35.217953 105 67 59
24.450821 -10.908577 35.131569 108 68 59
24.437996 -10.817464 35.131969 114 72 61
24.653807 -10.179549 35.421150 147 100 86
23.361254 -8.656884 33.538555 145 106 97
24.670650 -11.293644 35.389912 92 60 53
24.667006 -9.882872 35.386765 149 103 86
24.611544 -11.055959 35.253029 103 64 56
24.526234 -10.901928 35.155537 107 65 56
24.545980 -10.757591 35.176678 114 72 59
24.729681 -10.038308 35.431343 146 99 85
25.186392 -12.024303 36.065434 59 53 51
24.800751 -10.689994 35.498119 131 87 72
24.758062 -10.296007 35.438797 135 89 73
23.117193 -8.561489 33.088211 149 111 100
24.570436 -9.210881 35.133732 157 119 106
24.834217 -9.738643 35.494339 154 107 91
24.826780 -9.516256 35.478390 158 116 101
22.910425 -8.339105 32.715191 139 101 91
22.123117 -7.957485 31.608076 77 61 56
24.914783 -10.731973 35.561268 135 91 77
24.936014 -11.615944 35.550488 81 57 53
24.795683 -11.272941 35.359562 92 60 51
24.802410 -10.282474 35.320599 148 101 85
24.879576 -10.986323 35.397430 114 74 62
24.787136 -9.811832 35.267685 158 112 96
22.359827 -7.999157 31.825064 80 61 56
24.938370 -10.545095 35.451130 140 96 79
24.886740 -9.726273 35.391632 156 110 93
25.004015 -10.606432 35.510315 139 95 78
25.130404 -9.394750 35.709026 163 121 106
25.377731 -12.017721 36.014252 61 51 49
24.499079 -11.238348 34.762878 98 64 56
24.791433 -11.220531 35.165543 108 72 62
24.945711 -10.428749 35.384830 141 95 76
24.847198 -10.219563 35.275078 155 109 91
24.097794 -8.802888 34.187325 138 98 87
25.040260 -11.732578 35.488750 83 57 49
25.013208 -11.001782 35.444382 117 75 60
25.135355 -9.516835 35.620480 168 126 108
25.061476 -10.577147 35.494457 136 91 74
24.870596 -10.076001 35.210415 158 112 94
24.875267 -9.976886 35.232533 162 116 97
25.150675 -9.571355 35.618294 164 119 103
25.110847 -9.406386 35.546898 167 125 107
24.921202 -11.115486 35.242233 114 75 64
24.862434 -10.180670 35.166939 155 109 90
24.306997 -8.900366 34.400642 139 97 85
24.684366 -11.286540 34.878254 98 65 54
25.283813 -11.888691 35.711113 68 53 50
25.140142 -10.909194 35.482555 125 81 66
24.950211 -11.199512 35.177971 108 71 59
24.979620 -10.055869 35.238316 160 114 96
24.981871 -9.949381 35.233158 160 114 96
24.315193 -8.797444 34.311962 137 96 85
24.162788 -8.691195 34.096748 138 98 87
23.065445 -8.160012 32.531982 108 88 80
25.267868 -9.594910 35.621002 155 108 92
25.129042 -9.301064 35.422962 146 103 88
25.546158 -12.025827 35.986229 55 49 48
25.045790 -11.047063 35.263000 122 79 66
25.209475 -10.970403 35.485680 129 86 71
25.060863 -10.193414 35.282475 167 123 104
25.020712 -11.160008 35.197689 109 69 58
25.509310 -10.776078 35.871738 140 98 80
25.240726 -10.462945 35.498482 150 106 87
25.316059 -9.614212 35.620552 156 110 93
25.128334 -11.513618 35.312412 99 67 59
25.542263 -10.882339 35.893269 139 95 80
25.105837 -9.944387 35.286686 171 127 108
25.526661 -10.909459 35.846325 136 91 77
24.738337 -11.197427 34.688530 110 75 65
25.215111 -11.117392 35.347969 123 83 70
25.399233 -10.949649 35.635075 134 90 76
25.240055 -10.238033 35.410542 158 114 95
24.991348 -9.113192 35.060745 147 104 90
25.267960 -11.556883 35.400833 94 63 54
25.061407 -11.268517 35.126427 109 72 61
25.336344 -9.487043 35.486675 156 112 96
25.733326 -10.977749 36.014454 134 90 75
25.746094 -10.916191 36.045876 135 91 76
25.564903 -10.654602 35.794067 139 95 78
25.010750 -11.307265 34.991283 107 70 58
25.368706 -10.301051 35.489971 154 110 93
25.585314 -11.233728 35.752972 121 79 65
25.804878 -11.040206 35.997959 130 88 71
25.413826 -9.901645 35.427162 163 116 100
22.560108 -7.852845 31.450073 111 85 76
25.538898 -11.548516 35.587379 108 72 62
25.537848 -10.276833 35.579819 164 119 103
25.391870 -9.481295 35.381428 148 101 85
25.063005 -9.255352 34.888004 149 103 86
25.639746 -11.231586 35.617371 124 82 68
25.962973 -11.100916 36.058788 132 90 72
25.810963 -10.514307 35.835556 151 107 88
25.533737 -9.966738 35.482533 151 106 89
25.936975 -10.881354 35.972668 138 95 78
25.632601 -10.086849 35.576874 162 118 100
25.743071 -10.004399 35.655647 151 107 88
25.884689 -10.467372 35.811378 146 102 83
25.995420 -10.925700 35.946266 133 89 72
25.816971 -10.310247 35.690376 157 113 94
25.688276 -11.128728 35.436493 123 81 66
25.749636 -10.056349 35.497864 156 111 92
25.661079 -9.902302 35.418053 158 112 94
25.969065 -10.548659 35.770134 151 107 88
25.838686 -10.145258 35.517281 157 112 94
25.731863 -9.894938 35.369629 158 112 92
26.027206 -10.889639 35.753025 137 93 76
26.080225 -10.673336 35.809391 143 99 80
26.067099 -10.794999 35.762138 140 96 79
26.076033 -10.578218 35.766232 144 100 81
25.911625 -10.332114 35.552479 150 104 85
24.972141 -8.637934 34.247902 133 98 84
25.629194 -8.702500 35.070347 108 82 73
26.183043 -10.715425 35.830364 143 98 82
25.997269 -10.274384 35.554886 158 112 94
25.854275 -9.836783 35.353706 163 117 96
25.146112 -8.717650 34.400543 131 95 81
25.835596 -11.071286 35.326599 125 81 66
26.153576 -10.541196 35.762405 150 106 87
23.736835 -8.338788 32.438492 140 99 84
25.979420 -10.220780 35.466293 154 107 89
25.857204 -9.534967 35.314255 144 95 76
25.182865 -9.119556 34.380154 142 94 76
26.120426 -10.685450 35.622787 141 98 80
26.021120 -9.895164 35.479794 154 108 87
25.711557 -8.766741 35.034161 132 95 83
26.058783 -10.242754 35.444149 160 113 95
26.134939 -10.048904 35.539207 171 127 108
25.166487 -9.047268 34.216496 141 94 76
26.144226 -10.591206 35.543522 142 97 80
26.128408 -7.907733 35.505070 90 85 82
25.971664 -10.912026 35.253181 127 86 69
26.306910 -8.244740 35.729969 85 77 73
26.226767 -8.048729 35.614326 116 106 101
25.962849 -11.210028 35.190384 124 82 66
25.884512 -11.141150 35.082005 124 82 66
25.922823 -10.725360 35.142704 135 93 74
26.149870 -10.305499 35.432995 157 112 95
26.167307 -9.887403 35.476959 162 116 97
25.878223 -8.658242 35.071732 65 48 42
26.009359 -8.389505 35.240242 59 52 49
26.224228 -8.341719 35.527828 106 94 87
26.196192 -7.629708 35.434181 163 152 147
26.076612 -7.410669 35.266159 133 126 123
25.999460 -10.562121 35.133823 142 99 82
26.200476 -9.925719 35.424072 160 114 96
26.092243 -8.382790 35.235954 126 110 100
26.473335 -8.299596 35.771763 153 134 123
26.149349 -10.254838 35.317974 160 116 97
26.204409 -10.059355 35.391438 162 118 99
25.966570 -8.532169 35.046719 33 30 27
26.340935 -7.989833 35.579868 163 147 140
26.298843 -7.735905 35.506645 170 159 151
26.093590 -7.299806 35.220219 91 85 83
26.005611 -10.580689 35.069832 142 97 80
26.212786 -10.417750 35.358746 149 104 85
25.994284 -8.630947 35.054363 80 61 53
26.012707 -10.711082 35.049515 138 94 75
26.246796 -10.179891 35.392017 157 113 94
26.544355 -8.267783 35.759407 157 138 126
26.293182 -9.967457 35.404644 152 106 88
26.284744 -9.923170 35.398136 154 108 87
26.262949 -9.821209 35.352104 150 104 83
26.185003 -7.156982 35.194164 147 138 134
26.212008 -10.927467 35.203247 128 86 67
26.133003 -10.618971 35.085464 136 92 73
26.087561 -9.391766 35.010818 144 98 77
26.706091 -8.280030 35.845989 148 129 117
26.558865 -8.048898 35.659649 148 130 123
26.458796 -7.756844 35.525017 157 145 139
26.151133 -10.662651 35.088356 135 90 71
26.007523 -9.405778 34.895847 146 98 78
26.459045 -10.309925 35.465050 154 107 89
26.574921 -8.030024 35.614918 150 132 125
26.261103 -7.132144 35.200260 160 149 142
26.527855 -10.000561 35.545956 156 110 91
26.412792 -7.678295 35.367317 159 146 140
26.500589 -9.665979 35.461815 151 103 82
26.404465 -7.823966 35.311619 155 139 133
26.402338 -7.754002 35.321148 150 135 129
26.380169 -7.022647 35.279846 119 112 108
26.116047 -10.504792 34.895153 140 96 79
26.723278 -10.036909 35.708435 158 111 92
26.245527 -8.572501 35.077625 105 85 76
26.238201 -8.480066 35.074894 129 111 103
26.779577 -8.324510 35.781204 130 110 101
26.334665 -7.564681 35.208920 157 143 137
26.579432 -11.380593 35.492939 123 81 65
26.623560 -10.319978 35.550129 155 109 90
26.712643 -9.907789 35.686722 154 106 86
26.563118 -9.616092 35.469646 146 99 79
26.367790 -8.326861 35.205605 127 107 98
26.332291 -7.323936 35.155708 159 146 138
26.363157 -11.063012 35.171177 127 85 68
26.269602 -10.722365 35.048393 134 91 71
26.694006 -9.821324 35.612991 154 106 86
26.267340 -10.905631 34.995850 130 88 71
26.722864 -10.348907 35.607803 150 104 85
26.396286 -8.599042 35.184212 116 93 82
26.343428 -7.489200 35.133381 152 139 131
26.399864 -7.382170 35.173328 157 144 135
26.412745 -7.037863 35.211674 167 154 145
26.441027 -6.978025 35.251987 148 138 131
26.728415 -9.820078 35.590137 152 104 83
26.923223 -8.368527 35.850441 127 106 98
26.810858 -7.955652 35.709568 132 117 109
26.428293 -10.801160 35.156361 131 89 69
26.332687 -10.620052 35.028622 132 88 69
26.840788 -7.796227 35.698017 142 127 123
26.503710 -6.907661 35.264359 147 139 133
26.424265 -7.108213 35.105423 162 148 140
26.597889 -10.256757 35.316761 154 107 89
26.583126 -9.775753 35.318069 154 106 86
25.795546 -8.834438 34.255310 138 91 74
26.677134 -8.385315 35.406109 125 105 95
26.928734 -7.955711 35.744762 132 117 109
26.647215 -7.602882 35.379791 141 128 124
26.501896 -7.295915 35.187366 153 139 131
26.489216 -10.987937 35.152184 125 81 64
26.386929 -10.611180 35.012890 136 92 73
26.514101 -10.009645 35.167645 155 109 90
26.986446 -8.107529 35.804523 129 112 103
26.522730 -7.237112 35.180279 146 130 124
26.695398 -6.860145 35.424000 107 101 97
26.459835 -10.495187 35.046837 140 96 77
26.837395 -8.535678 35.539234 126 106 98
26.492781 -10.425952 35.053898 139 95 76
27.187601 -8.204912 35.954792 128 111 101
27.109781 -8.028031 35.860851 135 119 112
27.018656 -7.668160 35.747429 137 126 119
26.856895 -6.824194 35.550915 137 130 126
26.591158 -10.247624 35.138680 144 100 79
26.936310 -8.654672 35.622887 126 107 98
27.093050 -7.794193 35.786201 145 130 127
26.680380 -7.348013 35.268757 130 117 109
26.756077 -6.899498 35.390518 162 154 147
26.364857 -9.612386 34.795685 151 103 80
26.185268 -8.855184 34.567604 147 103 87
26.918797 -8.773659 35.543667 115 81 68
26.608341 -7.147686 35.145664 144 129 123
26.576786 -6.991753 35.092503 157 145 136
26.673534 -10.538743 35.182194 136 92 73
26.434256 -9.680110 34.873894 151 103 80
27.234488 -8.315305 35.936203 126 104 93
26.741924 -10.326890 35.232662 146 101 80
27.004906 -6.872686 35.605919 166 155 149
25.231554 -11.075423 33.224308 101 66 56
26.377209 -9.477039 34.728065 146 98 77
27.123592 -8.674958 35.734013 108 87 80
27.121307 -8.048761 35.740513 133 117 108
27.124180 -7.934308 35.728157 133 118 109
27.094122 -7.605515 35.683651 133 121 113
27.227734 -6.764188 35.857204 119 114 110
26.800621 -10.749563 35.287621 128 83 64
26.512192 -8.842073 34.878036 140 101 83
27.091263 -7.743362 35.644779 140 125 117
26.911598 -11.233813 35.367203 118 74 59
26.784613 -7.166861 35.201302 147 130 124
26.763920 -9.832891 35.134659 153 105 84
26.705626 -9.755678 35.081886 151 102 82
26.635305 -9.572118 34.980988 144 95 75
26.896036 -7.266549 35.325157 150 132 127
25.099426 -11.120922 32.936401 99 66 57
26.754578 -11.402716 35.116489 114 71 57
26.831644 -10.837712 35.212265 128 83 67
26.723213 -10.416102 35.074841 140 94 73
26.827009 -10.141153 35.197983 146 99 79
27.587887 -8.736763 36.199337 128 108 103
27.083317 -7.396656 35.531616 131 116 108
27.885683 -8.689845 36.576153 124 104 98
27.205050 -7.762077 35.664082 129 113 106
26.879963 -10.226092 35.215973 143 97 76
26.841223 -9.870948 35.160324 153 106 86
26.248083 -8.992896 34.369736 135 90 71
27.205561 -7.561016 35.637184 140 127 119
27.289068 -6.638738 35.747463 96 93 90
26.495079 -11.224869 34.679337 117 73 59
26.923723 -11.139838 35.232025 118 74 59
26.809235 -10.930111 35.091091 122 78 61
27.212875 -8.898840 35.612141 141 106 90
27.271364 -8.772712 35.671253 105 76 64
27.398268 -8.660069 35.871761 121 101 96
27.306812 -7.803399 35.734047 124 106 99
26.819416 -7.072066 35.098698 148 133 127
27.002272 -6.787477 35.350544 163 152 145
25.172293 -11.229340 32.927284 45 36 34
26.668461 -10.297739 34.873055 136 90 69
26.780216 -9.973860 35.014400 153 105 84
26.402151 -8.837667 34.524990 135 92 73
27.318663 -8.755607 35.729244 96 69 60
27.379696 -8.174775 35.802017 123 104 94
27.320295 -8.013170 35.734867 123 104 94
26.722385 -6.835055 34.927708 160 147 139
27.184605 -6.673514 35.524475 169 161 154
26.799820 -10.895741 34.968277 126 81 65
27.699656 -8.751388 36.148014 127 107 102
25.212942 -11.246422 32.879990 33 31 30
26.048082 -11.438387 33.975143 97 64 57
26.814495 -10.479903 34.962910 133 86 68
27.427031 -7.901553 35.767952 132 114 105
26.894564 -7.118258 35.074959 139 125 117
27.234327 -6.513417 35.515869 94 91 88
26.959160 -9.858024 35.139606 147 99 79
27.506813 -8.859697 35.840275 131 101 87
26.983971 -11.104457 35.130657 118 74 59
26.900064 -10.996728 35.018303 120 75 61
26.975357 -9.765111 35.114376 148 102 81
27.486496 -7.841416 35.761608 128 110 103
27.437754 -7.697642 35.710484 136 118 112
27.189474 -7.297966 35.393917 137 121 114
26.885927 -6.699792 35.001503 151 141 134
26.886452 -10.887367 34.979626 117 72 56
26.892355 -10.472475 34.987671 135 89 70
27.241653 -8.557801 35.396595 121 101 96
27.473406 -7.493749 35.685143 136 122 114
27.553322 -8.429790 35.770451 122 102 93
27.573410 -8.018732 35.793152 127 109 99
27.439095 -7.458596 35.624134 136 121 114
26.835430 -6.665286 34.837254 159 149 142
26.965118 -6.659963 35.010529 165 155 148
25.468340 -11.141220 33.028290 95 64 55
26.877769 -10.771009 34.870483 121 77 60
26.910381 -10.423572 34.907532 138 91 73
27.028746 -9.980024 35.069572 155 109 88
27.144756 -9.686285 35.217529 152 104 83
27.073963 -10.150413 35.076397 143 97 78
27.306202 -8.647637 35.382729 96 71 62
26.366167 -9.139933 34.140224 136 87 67
27.536816 -7.721941 35.643833 128 112 103
27.398344 -7.412335 35.474865 136 122 113
27.205309 -6.593738 35.211292 154 143 136
25.599258 -11.332055 33.106598 61 47 45
26.862038 -9.442229 34.753658 145 97 76
27.592144 -8.134503 35.699810 118 101 91
27.080635 -9.889308 35.003155 149 103 82
27.480528 -7.956146 35.508320 118 101 91
27.630278 -8.469454 35.678917 106 86 79
27.069649 -6.829303 34.952927 144 131 122
27.206154 -9.861281 35.081142 153 106 85
27.538906 -8.572902 35.533161 127 107 102
27.528986 -7.730194 35.516224 129 113 104
27.540525 -7.570582 35.529240 124 106 98
27.340015 -7.221201 35.254875 139 126 115
27.023138 -6.740270 34.866211 139 127 119
26.635778 -11.229618 34.341171 111 71 60
27.007565 -10.226797 34.804276 131 84 64
27.137714 -10.118296 34.990768 143 97 76
26.701338 -9.234971 34.412552 136 87 67
27.561790 -8.672111 35.520653 91 68 60
27.518782 -8.221191 35.476845 122 102 93
27.597466 -8.080303 35.557590 120 101 92
27.518370 -7.883259 35.480846 126 109 99
27.497450 -6.595733 35.450043 159 146 138
26.859337 -10.294149 34.583290 134 88 69
27.154018 -9.965080 34.971420 150 104 83
27.207014 -9.855020 35.049694 154 108 86
27.444355 -6.429020 35.332699 168 157 151
26.895382 -11.098588 34.592213 116 73 60
27.676250 -8.160965 35.605694 123 104 94
27.507933 -7.713646 35.407047 120 103 93
26.979961 -9.283068 34.668549 138 90 69
27.740469 -8.107450 35.656624 117 98 89
27.449295 -6.939835 35.282993 139 127 116
26.090492 -11.516932 33.515171 66 51 51
27.132961 -11.626045 34.840305 103 68 58
27.114105 -10.047832 34.826103 138 91 70
27.210577 -9.756632 34.939075 149 100 78
27.222425 -6.561447 34.977150 157 142 134
27.481321 -7.543764 35.276825 128 112 103
27.500425 -7.294442 35.286404 133 120 110
26.890064 -10.168738 34.487423 139 92 72
27.080288 -10.137023 34.738094 139 92 72
26.973957 -9.373098 34.591522 143 95 72
27.184246 -6.433419 34.863434 167 151 141
27.129456 -6.203462 34.771820 129 123 120
26.720608 -11.816944 34.236065 40 36 35
27.077187 -11.424528 34.681763 99 62 50
27.176411 -6.650684 34.796547 147 133 127
27.105257 -11.182600 34.696404 109 66 53
27.751322 -7.714312 35.499760 128 111 99
26.890497 -10.182405 34.384998 137 90 69
27.044577 -9.600755 34.584373 153 105 84
27.758850 -7.604222 35.522678 131 116 104
27.143187 -6.515354 34.706974 146 133 127
26.742271 -9.578671 34.168564 151 102 82
27.784830 -8.048845 35.477356 122 103 91
27.544323 -7.039623 35.197445 141 127 120
27.021849 -6.307074 34.532024 160 149 142
27.551569 -6.944876 35.166367 147 131 126
26.895483 -6.066427 34.346359 118 112 109
26.803038 -9.893558 34.185455 140 94 73
26.581503 -9.577085 33.915836 153 105 82
28.015171 -8.308506 35.718651 113 93 84
27.832092 -7.735923 35.493641 126 106 95
27.043541 -6.534208 34.502476 145 132 127
28.178879 -8.763307 35.902176 89 65 60
27.643497 -6.883635 35.195957 143 130 123
27.484783 -12.107684 34.971836 55 44 40
27.108315 -9.316636 34.481197 138 91 70
27.570238 -6.785774 35.060768 151 138 128
26.858629 -6.254591 34.163078 156 145 137
27.029926 -10.729776 34.368542 121 78 63
27.018072 -10.045457 34.329533 136 87 67
27.010090 -9.875751 34.340412 146 99 79
28.149477 -8.887347 35.767235 120 84 73
27.854406 -8.010130 35.397972 122 102 93
27.933414 -7.474164 35.479393 136 120 111
27.913815 -7.369557 35.460274 136 123 113
27.851908 -7.118030 35.401711 135 122 114
27.876245 -7.699041 35.393723 130 113 104
27.941017 -7.287187 35.462555 129 116 106
28.170580 -8.571184 35.749435 115 95 86
28.093433 -8.201274 35.636635 124 105 96
27.937557 -7.556483 35.448933 130 115 105
27.552515 -11.689261 34.918430 100 64 54
27.314819 -11.200603 34.602654 104 64 55
27.171677 -10.920049 34.441711 108 68 57
26.952890 -9.730417 34.153755 146 99 78
28.289642 -8.524953 35.859516 110 91 82
27.447172 -6.631970 34.791470 147 134 127
27.146374 -10.763908 34.368752 113 73 59
27.121742 -10.573004 34.344307 119 76 61
28.278175 -8.594269 35.841827 115 95 86
27.978157 -7.891146 35.423897 123 104 94
27.935246 -7.764150 35.395519 123 104 94
27.769114 -6.970462 35.161407 136 123 113
27.660873 -6.870219 35.036762 133 121 111
27.330580 -11.197554 34.596302 104 64 56
27.200621 -11.001697 34.424828 107 68 58
27.199322 -10.207325 34.415562 134 88 69
28.066711 -7.599909 35.491150 133 117 107
25.870930 -5.825674 32.728451 162 153 148
27.727165 -12.103981 35.049187 83 58 54
27.275284 -10.705053 34.451725 104 64 54
27.162945 -9.505189 34.311993 144 97 76
28.495564 -8.602479 35.987686 120 100 91
28.066635 -7.787871 35.426155 122 104 94
27.352390 -10.331033 34.511616 130 85 70
28.418461 -8.363114 35.859009 113 96 86
28.133419 -7.551692 35.497463 123 105 96
27.575830 -6.670860 34.805393 144 131 123
26.731762 -6.279810 33.721283 155 143 134
26.083252 -5.972877 32.928196 149 138 130
25.774347 -5.773833 32.530327 170 162 155
27.707287 -11.703023 34.926811 83 51 43
27.366903 -10.278693 34.523895 131 87 70
27.006651 -9.679823 34.060173 144 98 77
28.051460 -7.923941 35.377617 113 96 86
27.839361 -12.267905 35.074074 33 27 26
27.549202 -11.454630 34.720436 83 51 42
28.540792 -8.447082 35.948738 119 102 92
28.155008 -8.024396 35.478832 117 99 90
28.114653 -7.787829 35.435078 120 103 93
27.300219 -10.826407 34.354477 99 66 55
27.382887 -10.717323 34.463146 98 63 53
27.395771 -10.584289 34.469585 115 75 65
27.229509 -9.972997 34.270130 134 88 69
27.127913 -9.822075 34.168373 135 90 69
28.546734 -8.623258 35.959698 114 94 85
27.912539 -12.171581 35.102962 85 56 51
27.480831 -11.156353 34.561295 83 49 41
27.085787 -9.700504 34.059074 136 90 69
28.060440 -7.367388 35.284275 132 117 107
27.731575 -6.762678 34.871895 137 126 115
26.569023 -5.819592 33.397083 95 91 89
28.660973 -8.822162 36.023197 90 65 58
27.294405 -9.591879 34.255924 150 101 81
28.593603 -8.434454 35.906509 109 91 82
27.600620 -6.521640 34.639618 146 133 125
27.172060 -6.339826 34.110863 150 138 129
26.580711 -5.889599 33.366161 165 157 150
27.903793 -11.990376 34.993511 88 60 52
27.487436 -10.655066 34.483086 95 61 51
27.517021 -10.495170 34.518044 106 68 59
27.262699 -9.146118 34.205730 128 82 63
28.296640 -7.517385 35.506420 136 120 111
27.854012 -12.192114 34.923927 78 55 49
27.421394 -10.805503 34.369904 83 51 42
27.360249 -9.498131 34.304741 146 99 79
28.367346 -7.915690 35.541866 112 93 84
27.225262 -6.326211 34.108208 151 139 131
27.539755 -10.218223 34.480091 125 82 65
27.331251 -9.747397 34.210423 143 99 77
28.636629 -8.375707 35.859692 114 97 87
28.480659 -8.199984 35.654194 117 98 89
28.338974 -7.606752 35.492958 124 105 96
27.189560 -6.287146 34.044445 150 140 131
27.879225 -12.251009 34.872986 63 48 45
28.067272 -7.087481 35.103848 139 125 117
28.416162 -8.013551 35.530514 116 97 87
27.952530 -6.763407 34.946560 133 123 112
27.934362 -6.668996 34.908768 130 119 108
26.750605 -5.853482 33.436630 162 155 150
27.383869 -9.553928 34.208687 144 98 77
28.931995 -8.911654 36.128078 113 81 73
28.950642 -8.743349 36.145966 93 73 64
28.283594 -7.314930 35.316513 131 117 107
28.256683 -7.242026 35.288780 136 123 113
27.750406 -12.209381 34.641205 47 36 34
27.613825 -10.474979 34.471546 90 55 47
27.987270 -6.831847 34.917072 132 121 111
27.779346 -11.759050 34.623936 90 61 54
27.716856 -10.342545 34.551479 96 58 48
27.643976 -10.089122 34.476151 127 85 71
27.510164 -9.785013 34.290527 131 87 67
28.602753 -8.153850 35.658279 109 90 80
28.465395 -7.596529 35.476120 120 102 92
27.698242 -10.182259 34.488937 100 60 50
27.499170 -9.375195 34.235512 136 89 68
29.081299 -8.775236 36.213455 106 88 78
28.722414 -7.896684 35.736614 116 97 87
28.291277 -7.254751 35.212109 127 112 103
27.129562 -5.897985 33.750332 170 162 155
27.706312 -11.985119 34.452175 83 59 51
27.437174 -10.858884 34.131916 95 59 49
27.565145 -9.678183 34.289177 126 81 63
29.135420 -8.993412 36.232235 113 80 70
28.810984 -8.259354 35.828381 107 90 80
28.717983 -7.797409 35.703217 116 97 87
27.548342 -6.257515 34.262947 152 142 133
28.829727 -8.186462 35.820637 105 88 78
28.426743 -7.449577 35.310673 130 113 104
28.112255 -6.957441 34.920956 121 106 98
28.023336 -6.568018 34.810902 144 131 122
27.592405 -11.209974 34.238777 88 57 48
27.761322 -9.979472 34.462738 123 81 65
29.107464 -8.696724 36.107212 112 95 85
29.047445 -8.502398 36.046780 111 94 84
28.088158 -6.925402 34.883320 122 107 99
27.607990 -6.296204 34.282154 149 138 129
27.516954 -6.058345 34.165623 157 149 142
27.405594 -5.911340 34.035427 109 105 100
27.690613 -12.059774 34.349358 79 57 49
28.129705 -6.610561 34.858788 146 133 125
27.769979 -12.053436 34.383427 72 48 40
27.733892 -11.664233 34.347870 88 61 54
27.646143 -9.648375 34.236378 136 94 77
28.479866 -7.411941 35.260113 127 107 98
28.192291 -6.719812 34.896984 137 126 115
27.784079 -12.189917 34.384975 60 42 38
27.671841 -11.294267 34.238010 80 51 43
27.650471 -10.989949 34.212120 94 61 53
28.033983 -10.400175 34.695843 99 63 54
27.734367 -9.761959 34.315804 133 91 75
27.587906 -9.320537 34.147732 127 82 63
28.392637 -7.184782 35.135948 128 112 103
27.804638 -11.814965 34.373413 84 58 52
27.664759 -9.455209 34.209621 128 83 64
29.109295 -8.417499 35.989773 110 92 83
28.248354 -6.864786 34.926987 139 127 118
27.835838 -11.948330 34.377789 71 45 39
27.811842 -11.778554 34.364864 84 58 52
27.680023 -11.465773 34.198513 82 54 49
27.717470 -11.108079 34.235207 90 59 51
27.689703 -9.374331 34.212029 125 79 60
28.738655 -7.656073 35.486187 112 92 83
28.307934 -7.009110 34.977303 137 124 116
28.359606 -6.199856 35.020451 150 141 134
27.829729 -11.644913 34.354431 80 54 49
27.896244 -10.048963 34.431095 104 65 51
27.884064 -12.146535 34.380203 75 50 44
27.870169 -12.112554 34.370850 74 50 44
27.777645 -11.258354 34.253246 84 58 50
27.795792 -11.050337 34.275501 89 58 49
28.853231 -7.909854 35.593697 125 103 94
28.836426 -7.819989 35.549629 123 102 93
28.797781 -6.237147 35.478268 167 158 151
27.989281 -12.330616 34.479668 48 39 38
27.717131 -9.574050 34.156868 133 89 72
27.890726 -11.847345 34.346806 72 48 42
27.761694 -9.776701 34.188251 106 64 51
28.562254 -7.251219 35.160252 135 119 110
28.255114 -6.551767 34.793194 125 112 101
27.754221 -9.951627 34.142448 105 66 53
27.899132 -10.993354 34.286022 91 59 50
27.763044 -9.348390 34.120186 127 83 67
28.844927 -7.753747 35.458984 116 97 87
28.103176 -12.353809 34.514065 51 37 36
27.879768 -11.151679 34.232033 73 46 38
28.079805 -10.722802 34.473988 99 66 57
27.776232 -9.441986 34.096169 133 91 75
29.016605 -7.988253 35.626694 108 86 77
28.587515 -7.141971 35.090969 131 116 107
27.973625 -10.505778 34.323502 91 57 49
27.778290 -9.559784 34.071133 122 78 63
29.178093 -8.361257 35.791191 109 90 80
28.946215 -7.808131 35.505287 116 97 87
28.562172 -7.086538 35.031750 133 120 112
29.279696 -8.422689 35.879864 110 91 82
28.670874 -6.077028 35.142071 128 124 118
28.624485 -7.109666 35.053474 131 117 109
28.406425 -6.536964 34.800331 144 131 124
28.650337 -6.202364 35.089695 152 143 136
28.099552 -11.744102 34.383633 79 52 46
28.035381 -11.066786 34.295212 73 45 35
28.120361 -10.816886 34.437103 96 63 55
28.564743 -6.286137 34.939999 155 144 137
27.832560 -9.369001 34.027584 124 80 65
27.787905 -9.207480 33.983345 115 71 56
29.308962 -8.146813 35.841526 113 91 83
28.302546 -12.389244 34.575199 74 51 47
28.122538 -10.858747 34.367908 83 52 43
27.457205 -9.963925 33.538311 98 63 51
27.620401 -9.552259 33.746941 116 74 58
27.660240 -9.450105 33.803204 118 74 59
27.791620 -9.062093 33.961418 116 74 58
27.960989 -9.059389 34.163288 116 74 58
28.530418 -6.183246 34.857201 158 149 142
28.296925 -12.448862 34.554348 56 41 38
28.044491 -11.372434 34.238777 74 50 44
28.121269 -11.201599 34.315910 81 54 47
27.614908 -8.848763 33.716972 116 73 60
28.907328 -7.714264 35.298836 109 90 80
27.947025 -10.463204 34.093739 97 63 55
30.837376 -8.883784 37.602940 85 67 57
29.350641 -8.268601 35.801563 116 98 88
28.762232 -7.180959 35.084747 135 119 110
28.679073 -6.997628 34.971931 133 120 110
28.616068 -6.891339 34.892921 132 119 109
28.139475 -11.005539 34.310448 87 57 48
27.645006 -10.029654 33.695480 99 64 54
28.971922 -7.615578 35.309879 116 97 87
28.960068 -7.523583 35.279179 110 91 81
28.571512 -6.545610 34.802338 129 118 109
28.102539 -10.719302 34.203125 96 62 52
28.405685 -6.208550 34.583134 140 129 124
28.384035 -5.974011 34.561878 142 137 130
28.084755 -10.599007 34.160175 94 61 51
27.730005 -10.246476 33.745811 91 58 49
27.648573 -10.114193 33.638683 99 66 55
27.549843 -9.594509 33.534649 116 75 61
28.844965 -7.328896 35.095444 136 119 107
28.688457 -6.847478 34.886471 139 126 115
28.112925 -10.705064 34.182568 98 65 54
28.011120 -11.365285 34.023174 80 53 48
28.093443 -12.353312 34.089512 51 41 39
33.380894 -9.756765 40.490566 124 107 97
28.846050 -7.267616 35.007980 134 117 105
28.755960 -6.741061 34.893402 127 112 101
28.189405 -10.950609 34.163074 90 61 51
27.684023 -10.065441 33.570148 98 65 51
27.568571 -9.627254 33.436615 118 77 64
29.679674 -8.319793 35.982246 113 96 86
28.406048 -6.262821 34.424900 149 137 129
27.600801 -9.806211 33.428768 112 71 59
33.313416 -10.017369 40.360329 77 54 48
33.289555 -9.962001 40.333328 68 49 41
28.967819 -7.549682 35.087528 117 99 88
28.876217 -7.124884 34.988174 130 116 106
28.732325 -6.560065 34.790882 142 127 120
28.356918 -6.034738 34.339169 167 157 150
28.145054 -11.021555 34.062843 86 57 48
28.181860 -10.707974 34.125336 90 58 48
27.768606 -9.187579 33.618595 115 71 58
28.914648 -6.853004 35.006531 127 113 103
28.408777 -6.234266 34.400711 152 139 131
27.955633 -10.324150 33.816544 93 60 48
27.601290 -9.299990 33.372295 112 70 57
33.773937 -10.312850 40.844467 113 78 67
28.757580 -6.575154 34.789692 143 128 122
28.772333 -6.430737 34.792778 141 129 122
27.963734 -12.270786 33.803680 55 38 34
28.081083 -10.693716 33.934719 87 57 48
27.637348 -9.405437 33.396404 118 76 63
27.428495 -8.754100 33.146957 115 74 60
29.610395 -8.128023 35.775429 104 86 77
28.081747 -10.806826 33.910202 83 54 45
27.891588 -10.120739 33.676552 101 66 49
27.518465 -9.179954 33.222240 110 67 54
30.195568 -8.545446 36.429108 125 110 102
28.902279 -7.119806 34.888874 132 119 108
28.929289 -6.990779 34.934406 130 117 107
27.823738 -9.916784 33.558640 119 77 64
33.221218 -10.067394 40.066338 105 74 63
28.840303 -7.163745 34.798313 127 112 101
27.966072 -11.016521 33.715111 80 51 44
30.106274 -8.505712 36.290264 124 109 100
29.514448 -8.026427 35.571419 122 102 93
27.979078 -10.428155 33.707569 102 67 54
27.065462 -8.831645 32.599979 115 71 58
29.810917 -8.212670 35.906746 118 101 91
29.085455 -6.941136 35.012157 127 114 103
27.759474 -12.159119 33.408127 53 38 34
27.904125 -11.245041 33.577152 81 52 46
27.800354 -9.907660 33.462284 116 76 63
29.062447 -7.517301 34.960117 111 92 81
29.049122 -7.139293 34.968285 125 110 100
28.420233 -6.068672 34.202126 150 138 130
28.343515 -5.882217 34.111736 99 94 91
28.010445 -10.474021 33.669373 102 67 54
27.883509 -10.216139 33.534145 111 75 62
32.516918 -9.635446 39.095798 41 32 30
29.596682 -8.300193 35.579315 121 106 96
29.160595 -6.616968 35.060337 140 127 119
27.836561 -12.000331 33.442303 70 48 40
28.029858 -10.870941 33.691143 91 59 48
32.547729 -9.403041 39.112045 121 104 98
29.699602 -8.232389 35.676960 119 102 92
29.245190 -7.743673 35.130127 119 99 88
29.236277 -6.543751 35.107960 141 129 122
28.110754 -10.724179 33.743317 101 68 58
28.099537 -10.687031 33.736290 104 70 60
28.060888 -10.476726 33.685505 106 68 57
34.323753 -10.431456 41.186329 110 73 62
29.199156 -7.281126 35.039078 127 110 100
29.176874 -6.472649 35.018265 140 127 121
27.743198 -11.663747 33.263695 75 48 41
29.271980 -7.601983 35.109344 121 101 90
28.310274 -6.035326 33.953167 157 145 137
28.162825 -5.892955 33.768116 155 146 140
28.119497 -10.571922 33.709801 114 77 65
32.648113 -9.597986 39.152245 20 18 17
32.620590 -9.344261 39.074921 118 101 94
29.232983 -8.136987 35.023075 126 109 100
28.100687 -10.922430 33.656498 97 65 57
28.130754 -10.754963 33.685719 106 73 62
28.078714 -10.266408 33.622055 113 75 64
29.689869 -8.099329 35.538544 112 95 85
33.337967 -9.979764 39.893879 86 63 55
28.134205 -11.311425 33.632214 81 53 45
28.181576 -11.057370 33.679401 85 56 47
28.265978 -6.021402 33.772038 153 140 132
28.054962 -12.216578 33.511192 66 48 44
29.373117 -7.070622 35.066601 135 122 112
29.320608 -6.678204 35.005810 137 124 116
28.165142 -9.683010 33.600414 102 62 49
29.284664 -7.224495 34.941856 122 107 97
28.112631 -12.272100 33.520405 37 34 32
28.191717 -10.792983 33.629562 91 60 51
28.209654 -10.722301 33.630432 100 69 58
28.231812 -10.472322 33.655518 99 66 55
28.286724 -10.022645 33.736202 102 65 53
34.713436 -10.522288 41.393578 100 72 64
32.444199 -9.286222 38.684406 66 59 55
29.732929 -7.915516 35.450153 114 94 85
28.135937 -11.464412 33.511173 82 55 48
28.248594 -10.559002 33.665272 100 67 56
27.953421 -9.454866 33.307777 111 72 58
34.059277 -10.251997 40.599030 94 71 65
29.681990 -7.787110 35.354851 107 87 78
29.513721 -7.640394 35.162289 107 87 78
28.497789 -5.888992 33.961678 133 126 122
27.721035 -11.591419 32.994537 82 55 48
28.166578 -11.246904 33.540852 91 62 55
29.397980 -7.346524 35.016769 118 101 91
29.415995 -7.139293 35.024734 137 124 114
29.456589 -7.094248 35.060749 139 126 115
29.442558 -6.679895 35.040989 127 114 106
29.331211 -6.525740 34.923946 136 125 116
28.752972 -6.219882 34.238613 148 136 127
28.278988 -9.818897 33.640282 106 67 53
27.724037 -11.579204 32.955585 83 57 49
28.258005 -11.059769 33.591442 88 60 52
29.831776 -7.918237 35.463745 122 102 93
28.990246 -6.139831 34.456650 143 130 121
28.509996 -10.222051 33.853050 92 56 46
33.579369 -10.035570 39.888615 69 50 43
29.074549 -5.999099 34.522369 113 107 103
29.745667 -8.000265 35.305878 122 102 93
29.555513 -7.516275 35.062023 119 100 91
28.292433 -12.326674 33.548031 56 51 48
29.845747 -7.853005 35.384777 120 100 89
29.495161 -6.588225 34.953537 132 121 113
29.306931 -6.317115 34.749271 152 139 131
29.226423 -6.181111 34.675625 148 136 127
29.220293 -6.026571 34.655453 142 135 130
28.236803 -10.976108 33.442944 81 52 46
33.322670 -9.963190 39.469910 84 61 55
29.643841 -7.179456 35.121674 127 113 103
28.216599 -9.540016 33.395271 107 65 52
28.637169 -10.239633 33.881496 100 64 55
26.939379 -8.612569 31.851179 107 65 52
29.862722 -7.835737 35.311581 114 94 83
29.616137 -6.068596 35.039539 93 88 86
28.360991 -11.248601 33.518032 83 54 47
28.449661 -10.640642 33.611473 83 52 41
28.635689 -10.181390 33.847187 108 71 59
29.356415 -8.090000 34.702244 98 87 81
29.705328 -6.766295 35.087463 133 120 110
28.642580 -10.300164 33.824997 102 68 59
28.463366 -9.818951 33.610634 104 62 48
31.928205 -9.520452 37.699188 74 51 46
29.970528 -6.580422 35.385273 143 130 123
29.823763 -6.389009 35.209023 153 140 132
28.602734 -10.340261 33.735748 99 64 55
28.340967 -9.286926 33.427238 113 73 59
29.680845 -7.304210 35.022980 123 107 97
29.844629 -6.588041 35.216763 141 129 122
28.512115 -11.027452 33.602779 78 49 42
28.567085 -9.963659 33.679161 109 66 53
27.474474 -8.586013 32.394161 108 71 57
29.749678 -7.445257 35.077824 117 99 90
29.590921 -6.762068 34.884247 130 117 109
30.109621 -6.202265 35.495789 139 132 127
28.528683 -10.410782 33.594036 98 65 54
29.714367 -7.972124 34.999027 134 118 108
29.530407 -6.589819 34.790691 141 129 122
29.988693 -6.556318 35.305111 141 129 122
30.068441 -6.440462 35.415150 156 145 136
29.886555 -7.809116 35.173916 125 108 96
28.515385 -11.318051 33.528530 84 55 46
28.619427 -11.038378 33.658321 90 59 51
28.496822 -9.705875 33.527874 120 75 61
29.720869 -7.206046 34.947792 130 117 107
29.748610 -7.057062 34.974079 132 118 110
29.585325 -6.647532 34.788494 139 127 120
29.714857 -6.580529 34.933537 140 127 121
28.290358 -9.200148 33.239166 108 68 54
29.954594 -7.582294 35.191853 127 107 96
30.151991 -6.457704 35.426212 148 137 128
30.188366 -6.283898 35.459030 157 147 138
28.520384 -12.318748 33.490749 74 50 44
28.256086 -9.048812 33.187943 110 70 57
29.727606 -6.983256 34.896175 132 118 110
29.711109 -6.878244 34.866673 133 120 112
30.217815 -6.170954 35.475956 72 71 68
28.417749 -11.987646 33.346420 76 51 44
28.015253 -11.572289 32.866325 73 47 41
28.634113 -10.406573 33.580551 103 65 51
28.678818 -10.353198 33.652184 103 62 49
28.886719 -10.279292 33.877644 120 77 63
29.681623 -6.682639 34.820324 142 128 122
28.484564 -12.416115 33.388229 41 35 33
28.337292 -11.201159 33.209957 84 53 46
28.529310 -11.058966 33.434544 95 64 55
30.052853 -7.638529 35.219532 126 106 95
29.983974 -7.561118 35.155697 123 104 92
29.772604 -6.616026 34.902378 141 129 122
29.877197 -6.319035 35.005169 155 145 136
30.005123 -7.346614 35.136097 117 101 89
29.840834 -6.350375 34.946503 157 147 138
28.826529 -9.867303 33.731869 122 79 64
28.729837 -8.483082 33.611919 33 22 19
29.956972 -7.947323 35.035786 78 70 63
28.381401 -11.268586 33.175140 82 51 44
28.581579 -10.572452 33.422920 112 74 62
30.018219 -7.223859 35.094254 130 117 107
29.836754 -6.609005 34.884850 140 127 121
29.461105 -6.330471 34.443779 151 141 132
28.498013 -10.820697 33.295380 108 69 59
28.626844 -10.686090 33.454823 110 71 57
28.479197 -12.339141 33.250732 66 44 41
28.436298 -11.273761 33.212570 85 53 46
28.924999 -10.287227 33.765770 126 80 65
28.734344 -8.531891 33.548573 87 61 54
30.034098 -7.872054 35.067478 88 76 68
30.104576 -7.544663 35.135021 127 108 97
29.477036 -6.121867 34.404610 151 141 134
28.499565 -12.404966 33.220341 29 23 22
28.181490 -11.548013 32.863987 82 52 46
28.219130 -11.436575 32.893917 90 61 53
28.628796 -11.186657 33.364414 94 60 48
28.564255 -11.079088 33.309059 101 65 53
28.686188 -10.948512 33.440819 108 69 57
28.789846 -9.675845 33.561447 116 72 56
30.134916 -7.312443 35.111122 130 116 106
28.342344 -11.878719 33.000477 73 49 43
29.051502 -10.265117 33.836464 122 76 59
30.077909 -7.801033 35.025684 103 92 83
29.368807 -6.301605 34.206635 154 141 133
28.610275 -11.293480 33.285042 103 68 57
30.146093 -7.638817 35.070812 134 117 108
29.935429 -6.824955 34.847092 112 99 91
29.411901 -6.136276 34.233067 140 133 127
28.867336 -10.407483 33.564880 136 92 73
29.072769 -8.596802 33.817978 60 43 38
30.163929 -7.443364 35.072380 134 117 107
30.179415 -7.230327 35.086754 129 118 107
28.697540 -11.102843 33.349293 110 71 55
28.786026 -10.470519 33.448273 131 87 68
30.237268 -7.151625 35.120785 133 123 112
30.220608 -7.061544 35.103493 130 119 110
28.518583 -12.397857 33.116600 32 29 28
28.383997 -12.164283 32.940483 74 47 44
28.953125 -10.108446 33.605598 129 85 66
30.291767 -6.732463 35.156475 150 137 128
28.386086 -11.916106 32.936180 74 50 42
30.207603 -6.586916 35.046638 155 142 134
28.336563 -11.764733 32.832340 84 56 49
28.714411 -11.376058 33.297115 101 65 53
29.981155 -6.229559 34.735352 122 115 110
28.894213 -10.579756 33.453300 122 78 61
28.777685 -10.501687 33.334133 123 79 62
29.145769 -9.067493 33.758221 136 100 85
30.171272 -7.647651 34.952576 83 73 68
30.307474 -7.445917 35.088688 133 118 108
28.583549 -12.401076 33.062557 37 33 30
28.868353 -11.149155 33.419605 114 74 58
29.610300 -8.697524 34.276165 42 29 25
30.270252 -7.509052 35.028584 122 107 100
30.303452 -7.247246 35.067471 142 128 118
30.334164 -6.794988 35.105045 151 138 129
28.403450 -11.863429 32.855415 82 57 49
29.475399 -8.715106 34.071964 83 59 53
30.329329 -6.640223 35.059364 148 135 126
30.198149 -6.436491 34.914574 157 144 136
28.697857 -11.593076 33.151733 91 58 46
29.209621 -9.070540 33.766266 138 103 86
29.004967 -11.061525 33.490597 121 80 62
28.474661 -9.725306 32.850605 123 75 58
30.299885 -7.591632 34.979164 30 28 26
30.407196 -7.298770 35.073849 133 120 109
30.388721 -6.926880 35.078819 138 125 117
30.393200 -6.800408 35.095196 145 132 124
28.600595 -12.370401 32.995201 65 47 42
