ply
format ascii 1.0
element vertex 1134
property float x
property float y
property float z
property uchar red
property uchar green
property uchar blue
end_header
7.834161 -8.886025 35.943871 135 83 60
7.850700 -8.735362 35.945919 172 134 113
7.819344 -17.179811 35.800583 192 154 126
7.559309 -15.359857 34.599701 191 151 121
7.509177 -14.804891 34.348248 201 161 127
7.373639 -13.847218 33.712738 196 156 122
7.314944 -12.801844 33.410069 209 169 121
7.293072 -12.704732 33.394371 206 165 114
7.431930 -11.968060 34.020309 232 133 167
7.480373 -11.927143 34.173244 230 127 162
7.840570 -9.333369 35.852764 251 214 208
7.828006 -9.174544 35.833477 218 183 163
8.013886 -18.331139 36.520512 171 133 105
7.991956 -18.011036 36.395470 179 139 105
7.910220 -17.482407 36.054890 172 130 96
7.327525 -13.314007 33.404217 202 158 119
7.311988 -13.034978 33.288647 213 170 127
7.298179 -12.403141 33.294258 205 165 106
7.566300 -11.254736 34.554806 241 140 177
7.742758 -16.127083 35.209671 193 153 120
7.683915 -15.808942 34.908264 180 143 110
7.586413 -15.273424 34.562248 183 143 113
7.578754 -11.517814 34.462082 232 131 168
7.877312 -9.632838 35.811279 205 108 123
7.937385 -8.708929 36.080540 154 125 104
8.056014 -18.938042 36.518089 120 98 82
8.073503 -18.474392 36.563904 186 148 120
7.801486 -16.470568 35.334911 179 139 106
7.659047 -15.627835 34.746227 187 150 117
7.540221 -14.466374 34.182068 188 148 114
7.527429 -14.236520 34.118679 208 168 131
7.359413 -12.523886 33.359245 209 169 112
7.727540 -10.917171 35.016006 248 144 180
7.718456 -10.734313 34.922634 240 136 172
7.782243 -10.250786 35.255474 232 126 160
8.098925 -18.685549 36.590656 167 129 101
8.009234 -17.637236 36.138168 174 134 100
7.399301 -13.198946 33.388222 192 148 107
7.384963 -12.183125 33.421272 219 122 136
7.503268 -12.007337 33.931454 243 146 180
7.641044 -11.651076 34.510445 235 132 167
7.929718 -9.435192 35.809914 231 188 182
8.006747 -9.119075 36.134750 191 142 120
7.998776 -8.709958 36.138676 162 133 113
7.996024 -8.472261 36.135925 73 65 63
8.096324 -18.131115 36.427174 186 148 116
7.844352 -16.308187 35.301308 174 134 102
7.517433 -13.939507 33.846199 204 166 129
7.425438 -13.275867 33.386559 190 146 108
7.468389 -12.095438 33.686634 243 146 178
7.504809 -12.068164 33.815098 239 143 176
7.836370 -10.333894 35.253441 226 123 156
7.951708 -9.832005 35.802681 223 123 148
7.412489 -12.995287 33.325092 213 173 127
7.422825 -12.304209 33.362305 204 125 103
8.081522 -8.582663 36.253231 69 60 56
8.236265 -19.193541 36.869633 70 53 39
8.219685 -18.895073 36.788990 177 144 117
7.976779 -17.104567 35.723118 195 157 127
7.954049 -16.754564 35.562408 173 138 113
7.854390 -16.090050 35.178513 182 142 110
7.710677 -15.225807 34.517139 188 152 121
7.645439 -14.328834 34.154160 190 152 119
7.709745 -11.113048 34.520092 248 149 183
7.827857 -10.854867 35.064041 237 134 169
8.001552 -9.652876 35.800507 229 121 133
8.018162 -9.365469 35.854633 242 213 201
8.069216 -8.911398 36.112701 182 128 105
8.255081 -19.035990 36.821751 164 130 102
7.908855 -16.430895 35.383263 183 143 111
7.752533 -15.356680 34.588245 195 159 127
7.704597 -15.064192 34.399902 185 147 115
7.714761 -11.933073 34.321354 246 147 181
7.706803 -11.535600 34.373451 248 145 180
7.521626 -12.814167 33.456852 209 169 121
7.589494 -12.192249 33.724857 234 134 161
7.925485 -10.656129 35.235825 242 139 176
7.965092 -10.034893 35.386112 246 145 182
8.066965 -9.770571 35.828869 225 123 141
7.835345 -7.946891 34.832470 39 35 35
8.257456 -18.474266 36.643330 172 134 104
8.151196 -17.687134 36.158234 178 138 101
7.973761 -16.620142 35.457073 184 144 116
7.980752 -16.316065 35.361446 188 148 116
7.702928 -14.365396 34.123695 204 166 131
7.625021 -13.786240 33.773239 206 170 133
7.788035 -11.310481 34.512154 236 137 174
7.936531 -10.736414 35.197289 239 135 172
8.078870 -9.574609 35.812347 204 95 94
7.988780 -16.361120 35.361942 181 141 109
7.733401 -14.657246 34.212746 194 157 124
7.663999 -13.928972 33.892349 211 176 138
7.563461 -13.235107 33.390045 200 156 117
7.653916 -12.143756 33.853981 242 144 174
7.806380 -12.051836 34.499462 244 146 180
7.826801 -11.878127 34.600586 240 136 172
7.794049 -11.707474 34.517162 240 136 172
7.833713 -11.525916 34.569344 248 147 184
8.097453 -9.891962 35.789761 223 120 140
8.336102 -18.641693 36.645195 169 133 106
8.319267 -18.334948 36.605839 177 139 109
8.109948 -17.199100 35.729477 186 145 116
8.081671 -16.827291 35.579498 202 177 153
7.926864 -15.815700 34.920326 190 150 116
7.864158 -15.234728 34.629490 183 148 116
7.749341 -14.603557 34.210655 193 155 123
7.574800 -13.121750 33.407578 193 149 108
7.654871 -12.218554 33.751457 240 139 166
7.845756 -11.161808 34.545696 243 144 178
8.009775 -10.161833 35.311352 237 138 175
8.032110 -10.073310 35.392357 246 145 182
8.048411 -9.925480 35.468315 239 134 166
8.255809 -18.020451 36.290909 188 149 116
8.002253 -16.038010 35.143715 172 132 99
7.902230 -11.088346 34.690849 246 148 182
8.270920 -9.195075 36.288208 235 200 171
8.425675 -19.254156 36.910969 116 93 76
8.085666 -16.472616 35.400879 178 139 107
7.906233 -15.061171 34.613354 184 146 113
7.847534 -14.574618 34.413143 199 161 127
7.992459 -11.048103 35.019711 242 140 175
8.167392 -9.515555 35.795361 196 134 128
8.278743 -9.116949 36.239189 237 203 176
8.211733 -8.824881 36.009987 163 139 123
8.270655 -17.880112 36.182594 175 135 101
8.250436 -17.712069 36.036587 184 143 109
7.803256 -14.123627 34.079777 196 158 123
7.935832 -11.974749 34.616592 239 136 173
8.179543 -17.088135 35.616520 180 142 116
8.010530 -15.589999 34.805252 187 151 120
7.915226 -14.678797 34.470329 192 154 122
7.692001 -13.340337 33.453922 201 158 118
7.728963 -12.854043 33.627056 208 170 122
7.732496 -12.385139 33.581764 218 121 133
7.942562 -11.325689 34.611195 246 147 183
8.165848 -10.428020 35.574261 242 141 173
8.173526 -16.770370 35.513821 193 164 134
7.798067 -13.825372 33.901878 212 174 135
7.743470 -13.566041 33.575829 200 163 123
7.749609 -12.591497 33.636166 206 151 116
8.011814 -11.914674 34.731800 241 137 175
8.287486 -8.890409 35.981220 146 124 110
8.591610 -19.379587 37.129871 114 82 60
7.752371 -13.179538 33.560963 207 168 122
7.770624 -12.965233 33.590702 208 169 123
7.750770 -12.406352 33.621529 218 123 132
7.809973 -12.270493 33.773335 234 136 164
7.882831 -11.978800 34.059319 240 141 175
7.893685 -11.973668 34.134338 240 139 174
8.017655 -11.767465 34.632843 250 144 182
8.007380 -11.626606 34.620247 242 136 174
8.097988 -10.944885 35.040359 240 136 172
8.278515 -9.606754 35.869022 234 163 162
8.192725 -16.446938 35.385426 187 150 117
8.021767 -15.070607 34.594635 193 155 123
8.015759 -14.894532 34.548904 183 145 112
7.972618 -14.743047 34.421188 194 157 124
7.900836 -14.146121 34.107399 206 168 131
7.749894 -13.365278 33.478794 206 164 124
7.806304 -12.926711 33.648998 210 173 125
7.810531 -12.355588 33.748055 223 125 143
8.006901 -11.949245 34.567509 244 141 178
8.053865 -11.894383 34.746727 243 140 177
8.054586 -11.086671 34.805393 249 146 181
8.236682 -10.196821 35.549282 242 141 173
8.292164 -10.137678 35.778103 235 135 167
8.606332 -19.114998 37.021404 165 127 96
8.538826 -18.719446 36.759335 216 179 153
8.530292 -18.454275 36.639454 171 133 105
8.335075 -17.293264 35.775227 180 144 115
8.310994 -17.204882 35.706524 182 146 119
8.271014 -16.758165 35.518169 198 163 132
8.066302 -15.296181 34.723358 187 149 119
7.908283 -13.955805 34.007412 199 162 124
7.780983 -13.256483 33.491539 201 160 117
7.922247 -12.001033 34.093178 241 142 176
8.166323 -10.988683 35.170895 242 139 174
8.277976 -10.424883 35.589870 242 141 173
8.313834 -9.772291 35.807110 210 104 118
8.222066 -16.061115 35.176937 197 160 127
8.142518 -15.638609 34.868252 200 164 131
7.842531 -13.555868 33.638985 209 171 130
7.846543 -12.713856 33.693333 212 168 119
7.929276 -12.101013 33.976265 243 144 178
8.313718 -10.560303 35.669987 239 137 170
8.318965 -9.987289 35.728092 214 114 137
8.687828 -19.347330 37.156345 171 137 111
7.885546 -12.917189 33.751793 209 172 123
8.058871 -12.016980 34.417511 244 143 177
8.348973 -10.114979 35.703804 235 135 167
8.492387 -9.342612 36.395935 186 151 123
8.457872 -8.995099 36.226986 123 110 100
8.445443 -17.779278 35.971153 183 143 110
8.187901 -15.818745 34.931255 180 143 110
8.178178 -15.670484 34.910023 194 158 127
8.172540 -15.468361 34.829258 188 152 123
8.112972 -15.093010 34.600082 194 156 126
7.882221 -13.442479 33.655285 213 171 129
7.893699 -13.090261 33.696407 208 172 124
7.912374 -12.312757 33.714836 230 129 158
7.915559 -12.276644 33.740002 234 135 168
8.115420 -11.715727 34.586395 236 131 169
8.094212 -11.581276 34.570969 235 130 168
8.129200 -11.411613 34.653107 243 144 181
8.240563 -11.035521 35.127125 239 135 170
8.413075 -9.646042 35.834484 222 144 148
8.510405 -9.484811 36.288692 205 168 141
8.459327 -17.719580 36.009674 174 134 102
8.362971 -16.845428 35.505943 203 169 139
8.140778 -14.896761 34.574051 185 144 112
8.088816 -14.496593 34.417965 196 158 125
8.021577 -14.277764 34.159378 208 171 136
7.900935 -13.290316 33.631958 204 164 119
8.148136 -12.022807 34.637005 242 140 175
8.397445 -10.575378 35.697411 237 134 167
8.384492 -10.456654 35.671082 242 141 173
8.795363 -19.540384 37.264751 110 99 91
8.674785 -18.586782 36.733067 176 137 112
8.461145 -17.583364 35.908291 188 148 118
8.359317 -16.447033 35.411633 196 158 125
7.962806 -12.386474 33.750591 225 127 149
8.438397 -9.904611 35.765732 218 116 132
8.568345 -9.063561 36.339066 73 65 59
8.267886 -15.594623 34.903717 186 150 119
8.208989 -15.172824 34.662670 196 157 127
8.053885 -14.094306 34.071293 205 167 130
8.037899 -12.250671 33.942451 243 146 180
8.277334 -12.045690 34.959930 242 140 175
8.240414 -11.439408 34.871426 250 151 188
8.269690 -11.294561 34.932255 242 140 175
8.288554 -11.123364 35.045677 241 138 173
8.296879 -11.105867 35.092682 240 136 172
8.455799 -10.867715 35.702091 241 138 173
8.447133 -10.616318 35.762695 236 135 167
8.464998 -10.154823 35.719444 239 138 171
8.736703 -18.733545 36.847878 172 134 108
8.695510 -18.446093 36.632675 183 143 116
8.416003 -16.563349 35.439636 179 141 109
8.269473 -15.517722 34.876373 200 164 133
8.257700 -15.366076 34.801994 190 154 126
8.265162 -12.145934 34.833515 242 140 175
8.861481 -19.559532 37.264236 127 107 88
8.331830 -11.984832 34.956394 244 143 177
8.525160 -9.665847 35.842712 212 150 147
8.538656 -9.603100 35.885441 239 203 192
8.883801 -19.474022 37.261730 172 136 117
8.851636 -19.170387 37.149658 162 124 95
8.852497 -19.023268 37.118176 175 135 107
8.462847 -16.498487 35.429428 166 129 96
8.299907 -15.420370 34.773895 204 168 138
8.227203 -14.640348 34.467773 186 148 116
8.127995 -14.062297 34.073982 207 170 133
8.100116 -12.840905 33.926373 195 151 94
8.100162 -12.281321 33.923054 240 141 177
8.347618 -11.867953 34.933147 247 143 181
8.335182 -11.720487 34.948700 242 139 176
8.345430 -11.510500 34.923820 249 150 186
8.346903 -11.461943 34.967659 250 151 188
8.560372 -10.155561 35.801014 239 138 171
8.710282 -9.297756 36.515995 211 171 143
8.757843 -18.296265 36.572388 177 137 107
8.280373 -14.835491 34.558769 228 192 157
8.173136 -14.259362 34.204414 201 164 129
8.366904 -11.653766 34.956337 239 136 173
8.447823 -11.092444 35.301632 241 138 173
8.575196 -10.479744 35.840649 235 133 168
8.640203 -9.539979 36.068710 207 170 149
8.937274 -19.393827 37.225204 153 123 101
8.629579 -17.346289 35.895985 200 164 133
8.549891 -16.957785 35.627514 180 142 115
8.145441 -13.822165 33.971905 209 169 130
8.055090 -13.444004 33.576355 211 169 127
8.163970 -12.707072 33.986450 225 152 143
8.123683 -12.426709 33.837811 234 135 165
8.594384 -10.863636 35.741756 248 144 180
8.615256 -9.735986 35.842449 213 156 155
8.630482 -9.576189 35.950954 203 165 146
8.974462 -19.640423 37.275967 72 65 60
8.597273 -17.063419 35.707954 183 146 118
8.565319 -16.717501 35.513039 187 149 119
8.459829 -16.148207 35.162136 194 154 122
8.376555 -15.485841 34.825859 198 161 130
8.139823 -12.993510 33.765057 211 175 120
8.186742 -12.786000 33.969894 213 155 122
8.152578 -12.477238 33.862000 231 134 160
8.230629 -12.309128 34.160347 244 147 181
8.361648 -11.904307 34.765144 240 139 174
8.433396 -11.404994 35.066963 242 139 174
8.473954 -11.155804 35.185959 244 141 176
8.727092 -9.540636 36.237343 216 175 150
8.715920 -17.813898 36.082844 175 137 106
8.177076 -12.934044 33.903625 193 149 86
8.441813 -11.447958 35.007126 244 143 177
8.630046 -10.879685 35.703545 246 142 177
8.643764 -10.779393 35.788929 244 141 175
8.655195 -10.232139 35.880585 227 130 160
8.583858 -16.595980 35.472046 184 146 115
8.409621 -15.338679 34.756340 203 167 137
8.679904 -10.731357 35.820885 242 139 172
8.671632 -9.854530 35.870457 222 157 162
8.925312 -18.610250 36.781673 180 139 112
8.367798 -14.646982 34.482418 191 153 118
8.206744 -13.723522 33.789486 210 169 129
8.175650 -13.651732 33.688541 211 169 128
8.163129 -13.401137 33.580235 198 157 111
8.156433 -13.293688 33.617851 199 158 111
8.260188 -12.708644 34.049534 214 123 138
8.314115 -12.390794 34.192783 247 149 183
8.325839 -12.322051 34.233608 246 150 183
8.513000 -11.358739 35.055008 242 139 174
8.734593 -10.320842 35.953918 234 138 168
8.707958 -9.724536 35.896664 232 206 200
8.915276 -9.459552 36.692074 203 164 135
9.074136 -19.402941 37.189617 167 109 94
8.214439 -13.142282 33.738689 209 168 112
8.244328 -12.961452 33.883396 196 146 91
8.311522 -12.438758 34.130440 243 144 178
8.314420 -12.256596 34.182663 243 146 180
8.745290 -9.779035 35.913780 241 218 212
8.913370 -9.538696 36.594543 190 149 119
8.892527 -18.261772 36.411873 177 139 111
8.875570 -18.082865 36.335487 187 150 117
8.812715 -17.717594 36.088867 178 140 110
8.562099 -16.048903 35.078007 191 151 119
8.409204 -14.430851 34.418903 198 160 125
8.320525 -12.460257 34.061474 244 146 180
8.615341 -11.722642 35.213169 242 143 177
8.583095 -11.144484 35.192966 240 136 172
8.737878 -10.878290 35.762802 235 132 167
8.775091 -9.982125 35.934185 178 86 99
9.098077 -19.128351 37.137249 177 138 114
8.329174 -14.072580 34.008945 209 169 130
8.201412 -13.449987 33.484348 211 170 127
8.558581 -12.000827 34.925182 242 140 175
8.603867 -11.467395 35.159386 243 141 176
8.595181 -11.329081 35.092590 236 133 168
8.826826 -9.696973 35.997017 220 182 171
9.107135 -19.479425 37.135311 161 120 104
8.866842 -17.784269 36.081928 173 137 107
8.533660 -15.435744 34.798347 186 150 121
8.508449 -15.007116 34.644417 191 155 122
8.306458 -13.165443 33.761723 199 156 98
8.356350 -12.854063 33.991955 219 140 128
8.396931 -12.414616 34.163616 242 145 178
8.638235 -11.946101 35.152573 242 140 175
8.848100 -10.281440 36.011059 225 128 155
9.128009 -19.181032 37.060276 204 135 127
9.102417 -18.878292 36.987640 169 128 99
8.874186 -17.566399 36.034439 182 146 116
8.297278 -13.285389 33.660835 198 157 107
8.857111 -10.487295 36.031197 225 127 157
8.858045 -10.024956 35.939125 192 92 108
8.885757 -17.422812 36.035774 168 134 104
8.800691 -16.874552 35.648335 177 141 113
8.577342 -15.512529 34.810173 189 152 122
8.554534 -15.194322 34.631256 207 171 138
8.409062 -12.822674 34.070961 219 124 134
8.435375 -12.680201 34.153351 234 131 163
8.420338 -12.449735 34.046482 243 144 178
8.523094 -12.197113 34.508057 248 149 183
8.714547 -11.763380 35.267841 246 147 181
8.862415 -10.594944 35.847359 237 136 168
8.417922 -13.020318 34.014523 194 128 83
8.496444 -12.209888 34.288956 240 141 175
8.572432 -12.125528 34.619705 247 148 184
8.642158 -11.996910 34.858967 250 149 183
8.724232 -11.843536 35.240784 250 149 183
8.827046 -10.974863 35.657173 243 140 175
8.916148 -10.117262 35.985554 219 125 142
9.047780 -9.506142 36.556534 196 155 124
9.023294 -18.099234 36.304131 174 138 105
8.695765 -15.990587 34.991810 185 147 117
8.589352 -15.104233 34.600006 186 150 119
8.486236 -14.293695 34.193855 192 150 114
8.387078 -13.866129 33.790962 212 172 131
8.406237 -13.100347 33.864380 190 136 78
8.483575 -12.399320 34.159466 240 144 177
8.493307 -12.323108 34.235661 241 147 180
8.766235 -11.533499 35.320843 242 140 175
8.794367 -11.092243 35.396477 241 138 173
8.951195 -10.023396 36.060467 220 152 158
9.021229 -9.538399 36.330040 220 182 158
9.140058 -18.607738 36.731384 180 140 110
8.869253 -16.914513 35.656086 193 157 127
8.802890 -16.511578 35.376549 181 143 115
8.815785 -11.337854 35.341805 240 136 172
9.235222 -18.843933 36.983150 177 136 107
9.159489 -18.564323 36.716618 177 139 109
8.942062 -17.192862 35.828644 177 143 114
8.915077 -16.969608 35.657394 188 152 123
8.792931 -16.372972 35.263603 177 139 109
8.770700 -16.235157 35.134628 183 145 114
8.376019 -13.353627 33.613575 207 168 119
8.420753 -13.231003 33.764938 207 166 108
8.560775 -12.720608 34.252182 244 141 174
8.522869 -12.412367 34.128521 242 145 178
8.559655 -12.230186 34.273819 244 146 180
8.832282 -11.512035 35.377674 242 139 174
8.923709 -10.976592 35.706387 241 137 174
9.137162 -18.363869 36.523891 182 145 114
9.033389 -17.631111 36.073078 177 142 113
8.750277 -15.940062 34.900013 200 162 129
8.701161 -15.377289 34.744480 191 154 125
8.578202 -14.528672 34.253963 200 161 127
8.626061 -12.219881 34.404057 242 140 174
8.866446 -11.252793 35.388565 241 138 173
9.037231 -10.191591 36.093304 200 105 117
9.069412 -9.751760 36.150639 215 168 144
9.294392 -19.093424 37.034451 186 118 112
8.965605 -16.947704 35.693356 193 155 125
8.739026 -15.759803 34.822346 197 160 127
8.493961 -13.791974 33.844105 210 171 128
8.706401 -12.121604 34.724525 236 134 171
8.802457 -11.933184 35.055584 238 137 172
8.852213 -11.777279 35.279030 242 143 177
8.502126 -13.952672 33.790867 194 153 112
8.514257 -13.815677 33.845463 213 172 129
8.946332 -11.172694 35.521221 239 135 170
8.941785 -11.017583 35.554958 242 136 169
9.320501 -18.896406 36.980934 171 128 102
9.120667 -17.783092 36.136360 198 164 133
9.101335 -17.485338 36.048409 164 130 103
8.527426 -13.143720 33.775074 196 150 91
8.754642 -12.209702 34.675655 236 133 168
9.047020 -10.981022 35.849094 241 138 171
9.224223 -9.564681 36.491180 197 158 128
9.212634 -9.441354 36.502010 96 79 66
8.524995 -13.176195 33.655655 202 164 107
8.631705 -13.032281 34.069950 210 127 116
8.651828 -12.926208 34.144897 216 117 133
8.847139 -12.002679 34.922806 240 136 172
8.946168 -11.902148 35.334221 246 147 181
8.938763 -11.792497 35.327145 243 144 178
9.236979 -9.628936 36.441364 204 161 134
9.461166 -19.599819 37.266788 183 123 116
9.352301 -18.703188 36.793434 185 144 114
8.848475 -15.731050 34.833961 186 150 116
8.764701 -15.084909 34.593414 191 153 120
8.659534 -14.271845 34.093365 200 161 125
8.624477 -14.108434 33.988438 196 154 113
8.709331 -12.836193 34.344925 240 135 169
8.710176 -12.561182 34.298664 238 138 173
8.723286 -12.461560 34.378269 245 148 180
8.973021 -11.963685 35.337311 244 146 180
8.972694 -11.853062 35.340469 244 146 180
9.062655 -11.400290 35.703568 246 142 177
9.125591 -10.660934 35.909046 236 135 166
9.200050 -10.121289 36.269596 213 148 149
9.229162 -9.807279 36.379761 190 135 109
9.321995 -18.539543 36.618183 186 148 118
8.795116 -14.911531 34.515568 212 176 140
8.705480 -14.473718 34.166576 196 158 125
8.706499 -14.391088 34.171951 201 164 127
9.229920 -17.739279 36.132008 183 149 120
8.835500 -15.137106 34.608776 197 159 126
8.794486 -14.798772 34.449898 204 167 131
8.694633 -13.014540 34.050400 209 117 119
8.732640 -12.893044 34.198067 226 122 149
8.777076 -12.714414 34.331936 245 144 178
8.773370 -12.271549 34.402645 239 138 171
8.869781 -12.241015 34.722702 236 134 169
9.168256 -10.646027 35.919941 232 131 162
9.253060 -10.316489 36.253910 185 89 97
9.296410 -9.620897 36.423588 205 161 135
9.223989 -17.477589 36.054890 189 156 127
9.081872 -16.644054 35.498814 212 174 141
8.893402 -15.368807 34.704411 188 151 120
8.561624 -13.153230 33.400993 212 176 122
8.807626 -12.415516 34.416626 240 144 176
9.162629 -10.726881 35.796833 230 129 162
9.276239 -10.155630 36.263317 242 185 186
9.464238 -18.796583 36.862320 173 131 101
9.046688 -16.312702 35.255772 190 152 121
8.822906 -14.740492 34.387951 192 156 121
8.778049 -14.576502 34.189064 207 171 134
8.755566 -14.275215 34.074612 199 160 124
8.795367 -12.835956 34.258415 227 126 158
8.787730 -12.700121 34.313004 246 145 180
8.945354 -12.116642 34.858662 245 145 182
8.949919 -12.041328 34.918255 243 142 176
9.116498 -11.437516 35.545353 240 136 172
9.311552 -10.642982 36.325592 224 123 147
9.337719 -9.989000 36.366146 230 205 196
9.503972 -18.997715 36.895790 177 114 100
8.585621 -13.467281 33.367439 212 171 127
8.632319 -13.075989 33.580231 201 153 95
9.069758 -11.790466 35.216946 241 139 174
9.049322 -11.672902 35.162476 244 143 177
9.041324 -11.566851 35.095047 242 139 174
9.199396 -11.023524 35.796852 238 135 170
9.343637 -10.219074 36.276455 192 117 120
9.389009 -9.723829 36.451389 188 135 109
9.074291 -16.024969 35.124126 198 158 126
8.958242 -15.575575 34.790768 203 171 142
8.955986 -15.298945 34.656036 190 150 120
8.914917 -15.098241 34.579132 200 159 127
8.840789 -12.946094 34.234154 239 135 168
8.904438 -12.306796 34.473473 241 142 175
8.938456 -12.209188 34.628811 240 141 174
9.078792 -11.858507 35.197071 238 137 172
9.266840 -17.092361 35.787762 182 145 117
9.163354 -16.615438 35.451321 185 147 117
9.142590 -16.351460 35.290363 179 141 111
9.084831 -16.076363 35.150337 197 157 125
8.999701 -12.126606 34.758457 246 148 184
9.129978 -11.478601 35.302517 244 138 174
9.264772 -10.739754 35.795952 237 136 169
9.396673 -9.914865 36.387123 206 170 151
9.666698 -19.784710 37.339310 155 119 106
9.465646 -18.550959 36.514168 162 124 90
9.350645 -17.633430 36.094147 170 138 110
8.699139 -13.621766 33.523991 199 157 117
8.827794 -13.018168 34.009552 213 121 134
9.272855 -11.206604 35.758377 232 130 165
9.440707 -10.053967 36.377663 219 192 178
9.638323 -19.264578 37.079166 175 86 88
8.890855 -14.474749 34.186337 210 173 137
8.727782 -13.113970 33.585934 200 158 98
8.984770 -12.768873 34.535145 241 142 176
9.195728 -11.971754 35.323765 245 144 178
9.157787 -11.823100 35.251534 240 138 173
9.143936 -11.590665 35.167843 239 135 170
9.487453 -18.389742 36.384369 190 152 119
9.468669 -18.191441 36.287479 188 152 119
9.302342 -16.922205 35.670502 185 147 117
9.082806 -15.519911 34.826633 203 171 142
9.194901 -11.799520 35.301727 242 139 174
9.458258 -10.296711 36.280952 231 174 174
9.788885 -19.739182 37.389545 155 89 87
9.612266 -18.907763 36.800564 181 137 113
9.112678 -15.590598 34.818542 199 167 136
9.060903 -15.222794 34.654991 192 153 121
9.070805 -15.156028 34.643650 194 155 124
8.984105 -14.715751 34.395393 197 159 124
9.151120 -12.232658 35.010345 248 150 186
9.376838 -10.712585 35.827141 228 128 160
9.498372 -10.101841 36.349667 244 215 206
9.522391 -9.731748 36.510654 208 157 150
9.760582 -19.443747 37.205917 164 79 81
9.538560 -18.430706 36.417732 183 143 113
9.475026 -17.507227 36.109348 193 160 129
9.389721 -17.193523 35.864079 182 146 118
9.301747 -16.731228 35.481960 183 145 114
8.793655 -13.193295 33.537380 207 161 105
9.231255 -11.695973 35.244308 242 140 175
9.382140 -10.753066 35.827755 231 132 164
9.701840 -19.077099 36.925549 178 127 107
9.470876 -17.352188 36.008007 192 158 127
9.259079 -16.082838 35.194496 180 138 106
9.124752 -15.385922 34.740086 200 164 131
8.818110 -13.619986 33.548775 210 167 123
9.324408 -11.975274 35.461498 243 140 175
9.312351 -11.461444 35.405338 240 138 174
9.546802 -10.600837 36.281197 230 130 155
9.563484 -10.074891 36.373451 239 207 188
9.566988 -9.993496 36.406593 198 151 135
9.563838 -18.135876 36.325123 186 150 121
9.538583 -17.679634 36.177856 190 156 127
9.438613 -17.088758 35.777622 186 148 118
9.096158 -14.821163 34.499767 204 164 128
8.814270 -13.459336 33.425797 202 159 112
8.984448 -13.022074 34.093040 236 139 169
9.565718 -10.274517 36.291389 253 193 194
9.907174 -19.994637 37.531925 172 140 115
9.196852 -12.590604 34.785892 239 143 176
9.322055 -11.614511 35.276295 242 139 174
9.469397 -11.127254 35.828579 217 115 146
9.471997 -10.700975 35.858047 229 131 160
9.625243 -18.088308 36.296890 180 144 115
9.521854 -17.243454 35.950817 189 155 126
9.372160 -16.621572 35.391068 190 152 121
9.297851 -15.918223 35.133389 187 150 117
9.163838 -15.210204 34.630405 197 161 129
9.005869 -14.185400 33.991974 216 176 140
8.902136 -13.242644 33.619255 195 145 89
9.389086 -12.141732 35.450642 244 147 181
9.410705 -12.050204 35.516788 240 141 175
9.992942 -20.192574 37.611469 74 64 58
9.989675 -19.953665 37.557400 165 136 111
9.669236 -18.384243 36.423172 170 132 102
9.425364 -11.883645 35.423290 240 138 173
9.443439 -11.481996 35.565029 236 134 171
9.629859 -10.529527 36.282646 217 118 137
9.981546 -19.767897 37.453640 157 106 95
9.524641 -16.923422 35.718185 179 141 111
9.674161 -10.169744 36.332298 231 182 170
9.678509 -9.983179 36.395638 184 133 116
10.021119 -19.988993 37.581959 169 137 113
9.667683 -17.716089 36.230289 184 149 118
9.423354 -16.279131 35.299198 226 189 163
9.036864 -14.105306 33.874626 218 176 137
9.008188 -13.144499 33.762306 223 156 127
9.140530 -13.040840 34.215729 244 147 181
9.253582 -12.771976 34.621548 251 150 184
9.434296 -12.146410 35.332829 239 144 177
9.548929 -11.453400 35.743526 242 142 178
9.670466 -10.667751 36.267860 221 122 147
10.072487 -20.210732 37.617157 37 30 25
9.883002 -19.067181 36.905754 190 145 121
9.744979 -18.234974 36.362961 196 157 127
9.725572 -18.059563 36.298752 189 153 125
9.583880 -17.091721 35.820312 192 154 124
9.408371 -15.866030 35.149010 196 156 122
9.308847 -15.381218 34.748661 189 153 123
9.070217 -14.200797 33.890316 208 168 130
9.000310 -13.430326 33.660137 207 159 109
9.189634 -13.045758 34.390911 244 147 181
9.243266 -12.991631 34.526222 240 142 176
9.278223 -12.667548 34.697056 239 138 173
9.357251 -12.559733 34.939499 236 139 173
9.385774 -12.362900 35.048645 241 147 180
9.477800 -11.732536 35.378826 235 133 168
9.576111 -11.037947 35.833920 237 134 167
9.618954 -10.817680 35.920811 230 129 158
9.726672 -10.325327 36.326885 215 135 147
9.730226 -17.621496 36.219913 177 141 109
9.462050 -16.034418 35.230434 186 146 111
9.271476 -14.887082 34.537437 195 155 121
9.045671 -13.608841 33.689983 218 172 127
9.033604 -13.213447 33.691792 216 156 117
9.288724 -12.869800 34.631634 243 142 176
9.909049 -18.929544 36.821075 169 127 100
9.889910 -18.773933 36.727375 170 130 101
9.516479 -11.957945 35.373798 244 147 179
9.554000 -11.701670 35.493744 234 132 167
10.129626 -20.220472 37.585594 64 62 61
10.054195 -19.577312 37.271702 172 124 112
9.089502 -13.409438 33.703484 207 156 105
9.383230 -13.061652 34.757229 241 145 178
9.344136 -12.890802 34.710732 242 139 174
9.400074 -12.737193 34.848694 239 135 170
9.583253 -11.568773 35.543770 240 136 172
9.816710 -10.081811 36.409019 183 133 101
9.839424 -9.885358 36.478344 204 153 139
9.856825 -9.791231 36.544151 134 113 107
9.825177 -17.973606 36.315899 196 165 133
9.730678 -17.292822 35.947849 173 136 103
9.619227 -16.838919 35.599926 186 148 116
9.567268 -16.550543 35.359104 184 146 115
9.536119 -16.094387 35.261208 194 154 121
9.173737 -14.201472 33.919743 194 153 116
9.155276 -13.824555 33.837582 208 164 124
9.596925 -11.747652 35.501656 237 136 170
9.695714 -11.316228 35.871754 238 137 169
9.808689 -10.490189 36.242508 199 93 111
9.820973 -10.388695 36.315338 233 193 192
10.087313 -19.387638 37.175915 169 123 101
10.057306 -19.269085 37.108490 182 137 111
9.681087 -16.995964 35.716957 192 154 122
9.434559 -15.466061 34.811741 203 167 135
9.152883 -13.155638 33.810181 217 117 127
9.303372 -13.063548 34.295792 242 143 177
9.469121 -12.866691 34.936787 240 136 172
9.791233 -10.952748 36.061455 242 139 170
9.410530 -15.152397 34.652271 211 174 141
9.387786 -14.895754 34.528198 208 168 131
9.231928 -14.018002 33.908539 206 161 123
9.277386 -13.068386 34.135334 244 146 179
9.476933 -13.006892 34.866901 238 137 172
9.525151 -12.706304 35.065567 241 138 173
9.575085 -12.165913 35.182709 244 150 181
9.653604 -11.842207 35.514374 241 140 175
9.798573 -11.067719 36.068974 236 133 164
9.815372 -10.879683 36.112865 241 138 166
9.852193 -10.587837 36.236099 197 96 109
10.055839 -18.906836 36.892925 186 145 117
9.907163 -18.094473 36.357769 196 160 130
9.484791 -13.053826 34.819214 238 140 174
9.517557 -12.817231 34.951099 242 139 174
9.608972 -12.033905 35.212116 241 141 173
9.765572 -11.439205 35.760113 243 143 179
9.771998 -11.347352 35.898361 232 131 164
9.909185 -17.621586 36.230053 179 141 110
9.839028 -17.462334 36.060135 185 147 115
9.638889 -16.303385 35.266388 194 155 124
9.648213 -11.944113 35.327320 244 144 176
9.956084 -10.280164 36.411053 243 213 207
10.194100 -19.708046 37.243629 183 149 124
9.655346 -16.147444 35.257313 186 146 111
9.284442 -13.484513 33.849041 202 152 101
9.265189 -13.233939 33.827923 210 124 127
9.560574 -12.989402 34.866978 242 142 176
9.632349 -12.064309 35.211689 242 143 175
9.905593 -11.142588 36.114578 232 133 165
9.892056 -10.988805 36.104061 239 139 168
9.961138 -17.919802 36.294365 173 137 108
9.549420 -15.432739 34.753166 204 169 136
9.523554 -15.343638 34.702030 201 165 132
9.375334 -14.471545 34.129368 197 157 123
9.302666 -14.236847 33.897873 204 162 126
9.596218 -12.814834 34.934624 239 140 174
9.775321 -11.640172 35.581150 244 143 177
9.915849 -11.058453 36.116062 234 135 165
10.027194 -10.070068 36.493000 170 119 90
10.172480 -18.991369 36.932758 171 130 98
9.343226 -14.014389 33.917622 206 160 122
9.671248 -12.272979 35.118484 249 162 194
9.948998 -10.923589 36.157120 237 138 167
9.983677 -10.610579 36.262566 205 101 110
10.176301 -18.863155 36.872459 189 149 120
9.379745 -14.311822 33.992496 200 158 122
9.359097 -13.362457 33.908642 218 154 125
9.354268 -13.288835 33.909401 220 136 141
9.581865 -13.126484 34.719738 246 150 183
9.628105 -12.912769 34.850685 238 137 172
9.666810 -12.714010 35.025837 244 146 180
9.681392 -12.299139 35.080978 245 154 187
9.811572 -11.909798 35.533588 240 137 169
10.049265 -17.790958 36.319889 193 157 127
9.733181 -15.868998 35.136391 192 153 120
9.574861 -15.004001 34.612293 194 154 120
9.663572 -12.819872 34.917500 246 145 180
9.886829 -11.511091 35.760242 245 145 180
10.001663 -11.158657 36.168594 236 136 168
10.060206 -10.414494 36.395275 231 204 203
10.295127 -19.935745 37.122013 149 125 102
9.557757 -14.781793 34.507217 208 168 131
9.409772 -14.063045 33.936810 192 144 107
9.390213 -13.578680 33.883869 219 173 128
9.518601 -13.109348 34.278870 241 145 178
9.717455 -12.618769 35.055775 244 146 180
10.129382 -10.165130 36.549881 156 110 79
10.223854 -18.807795 36.809402 172 133 104
9.774579 -15.858559 35.144562 196 158 126
9.681195 -15.418342 34.818748 191 153 120
9.616224 -14.899224 34.577023 203 163 127
9.446512 -13.464683 33.911716 224 171 134
9.714977 -12.944002 34.864582 245 144 178
9.911085 -11.732219 35.643478 240 138 172
9.970208 -11.405107 35.827633 241 137 173
10.042832 -11.299500 36.130470 231 127 160
10.213768 -18.570866 36.593170 175 137 106
9.870794 -16.840385 35.444744 189 151 119
9.827787 -16.590960 35.260361 192 152 123
9.827795 -16.435392 35.214264 195 156 126
9.726911 -15.586049 34.901310 188 152 121
9.491267 -14.350540 34.046738 205 163 125
9.464453 -13.241131 33.992668 237 138 168
9.712221 -13.069967 34.881371 246 148 182
9.754249 -12.494024 35.030800 238 141 174
9.752207 -12.381448 34.989162 234 138 170
9.794591 -12.194865 35.171425 248 157 188
9.987619 -11.377239 35.866653 238 133 167
10.098690 -11.008959 36.186607 238 138 164
10.197992 -10.065426 36.577671 197 160 134
9.791319 -15.940750 35.045856 186 145 116
9.631790 -14.706683 34.438976 207 167 130
9.499918 -13.352387 33.976135 219 132 132
9.590862 -13.166900 34.250515 247 151 184
9.743474 -12.946488 34.837727 242 142 176
9.991871 -11.677142 35.744072 244 143 175
10.119186 -10.758634 36.246040 199 95 101
10.195872 -10.462394 36.490223 222 199 186
10.367945 -19.716984 37.062668 154 124 97
10.408368 -19.485193 37.175186 189 153 127
9.852311 -16.546064 35.235878 185 144 114
9.522053 -14.294850 34.006882 200 158 120
9.522526 -14.123164 33.989880 203 152 113
9.512938 -13.949036 33.979156 196 148 108
9.653211 -13.110929 34.460526 239 143 176
9.754128 -13.097146 34.796391 240 144 177
9.865959 -12.026227 35.258087 243 146 180
9.947720 -11.799253 35.512215 236 135 167
10.035479 -11.430095 35.834614 233 128 162
10.178887 -10.544006 36.323925 191 120 114
10.243202 -18.076199 36.427460 186 148 120
9.730498 -15.139699 34.650192 204 166 129
9.547355 -13.482030 33.987823 220 161 129
9.850691 -12.510148 35.027428 243 145 178
9.973828 -11.898129 35.564243 244 143 176
10.310219 -18.560595 36.652603 194 156 126
10.179873 -17.534567 36.141361 190 152 119
9.865276 -16.043575 35.090538 190 152 119
9.576603 -13.742341 33.993031 217 171 127
9.576488 -13.290021 34.062557 236 133 164
9.839932 -12.751016 34.966259 236 135 169
10.059623 -11.512578 35.748787 241 136 169
10.250468 -17.983681 36.384106 186 148 118
10.251273 -17.805258 36.337105 172 134 104
9.971784 -16.758667 35.394955 179 141 109
9.946263 -16.473097 35.226364 190 150 120
9.814634 -15.359426 34.773338 191 152 117
9.734387 -13.150966 34.521755 240 144 177
9.947990 -12.236658 35.296028 241 145 177
10.128973 -11.724420 35.869068 238 137 169
10.243316 -10.878806 36.275230 215 105 112
10.232013 -10.555285 36.280949 230 158 151
10.506092 -19.961205 37.137051 151 123 98
9.727779 -14.760235 34.409214 188 148 115
9.877071 -12.821618 34.880493 235 133 168
10.040087 -12.050340 35.494572 244 146 180
10.237055 -11.050900 36.201679 200 93 109
10.271436 -10.811582 36.305950 202 91 90
10.501447 -19.163298 36.995510 187 148 119
10.349221 -18.272125 36.512157 181 141 111
10.038216 -16.644510 35.357666 176 136 106
9.969348 -16.285044 35.134647 191 153 122
9.850026 -15.299871 34.751419 194 154 120
9.626246 -14.256833 33.957520 204 162 123
9.613068 -14.178224 33.936321 202 158 119
9.643595 -13.557619 34.028683 214 146 121
9.866365 -12.929704 34.813248 236 135 169
10.161841 -11.807236 35.864983 245 141 175
10.261559 -11.236359 36.192509 240 134 162
10.399678 -10.294943 36.665001 217 174 144
10.377974 -10.024118 36.602413 72 64 56
10.010483 -16.414711 35.239914 177 137 106
9.650071 -14.001226 33.970432 210 165 124
9.665079 -13.715160 34.023727 207 158 117
10.432920 -10.407465 36.671524 189 152 120
10.622224 -19.728783 37.249928 160 127 100
10.310225 -17.620176 36.128925 176 136 104
10.040337 -16.139700 35.230198 191 156 123
9.984892 -15.634085 35.025890 218 180 145
9.781066 -14.706661 34.320087 194 152 118
9.676865 -13.912379 33.992279 213 169 127
9.683380 -13.836595 34.012405 213 169 127
9.686786 -13.453972 34.065243 222 125 142
9.786675 -13.261502 34.349377 243 144 178
10.045375 -12.385034 35.298870 242 145 178
10.097673 -12.060371 35.441631 240 141 175
10.125436 -12.003707 35.537674 236 135 169
10.198894 -11.608501 35.786610 240 136 171
10.674891 -19.641033 37.361759 170 135 105
10.135575 -16.835930 35.473717 180 143 110
9.701036 -14.309517 33.961155 208 164 126
10.381264 -10.908498 36.302464 197 91 92
10.458751 -10.082965 36.622635 66 58 51
10.711681 -20.207798 37.404629 77 72 67
10.078576 -16.378197 35.218334 189 149 117
9.725043 -14.145683 33.954056 203 159 118
9.956783 -13.307885 34.729652 234 138 172
10.043173 -12.597384 35.015144 241 145 178
10.228666 -11.912454 35.724457 243 142 176
10.432894 -10.582280 36.410831 206 144 131
10.453085 -10.545826 36.508175 226 187 167
10.514746 -10.247128 36.691792 175 135 107
10.749653 -20.104170 37.449955 153 119 91
10.734995 -19.955820 37.410683 180 146 120
10.681105 -19.474808 37.183773 171 135 104
10.540671 -18.659716 36.717403 192 154 124
10.360524 -17.664679 36.150135 188 148 116
10.253884 -17.090305 35.719204 182 144 111
9.879188 -14.838288 34.451515 204 162 126
9.749920 -14.301767 33.979034 207 163 125
9.753752 -13.650564 34.036942 215 159 122
9.821673 -13.386286 34.226170 239 138 170
10.006175 -13.136769 34.830944 243 146 180
10.023020 -12.902150 34.911152 243 142 176
10.314713 -11.560487 35.906181 229 125 154
10.518855 -10.414041 36.683319 168 128 97
10.646571 -19.210831 37.008224 173 133 101
9.812343 -14.421732 34.090382 204 160 124
9.791462 -14.043092 34.024307 208 164 122
9.995365 -13.177584 34.754417 243 146 180
10.082669 -12.548614 35.039059 241 145 178
10.133196 -12.435449 35.198158 237 143 176
10.153353 -12.251530 35.296803 238 144 177
10.362388 -11.526752 35.989620 228 124 153
10.380839 -11.473695 36.036285 221 116 145
10.386871 -11.422248 36.083454 221 113 143
10.430146 -11.331367 36.204262 229 121 149
10.798856 -20.185535 37.406101 101 87 74
10.667751 -19.097597 36.989323 188 149 119
10.066939 -15.390226 34.851635 202 162 128
10.023512 -13.350506 34.726978 233 136 169
10.081793 -13.066998 34.953979 243 144 178
10.105236 -12.522036 35.071178 241 147 180
10.354850 -11.810040 35.928349 232 128 163
10.782044 -19.651840 37.325165 165 129 100
10.233523 -16.742941 35.384975 189 151 118
10.184581 -16.383984 35.218571 171 130 98
10.189762 -15.971301 35.220863 193 155 122
9.966336 -14.941644 34.496597 188 147 112
9.833893 -14.140852 34.019043 209 165 124
9.882473 -13.761864 34.124969 220 170 128
9.882695 -13.633449 34.182400 210 127 121
10.073998 -13.169459 34.853798 240 142 176
10.096313 -12.676589 34.966553 242 145 178
10.329914 -11.985840 35.727356 242 140 175
10.499834 -10.936987 36.335712 226 117 129
10.579895 -10.492251 36.616772 197 163 129
10.580433 -10.225385 36.605000 182 149 125
10.753551 -19.339876 37.132046 172 133 102
10.557204 -18.200638 36.400970 192 154 125
9.882932 -14.434588 34.094650 198 156 119
9.898056 -13.814589 34.125961 223 173 132
10.290570 -12.090109 35.511242 237 137 171
10.283593 -12.014091 35.519299 236 135 169
10.863477 -20.123419 37.404991 151 121 94
10.543231 -18.042727 36.297592 184 146 118
10.503016 -17.700775 36.159321 184 146 113
10.240957 -12.469652 35.290493 239 147 180
10.405847 -11.902789 35.790741 236 133 168
10.507885 -11.428449 36.159672 228 120 150
10.831966 -19.718052 37.253452 171 137 110
10.488456 -17.539764 36.045071 185 145 110
10.315794 -16.808416 35.456020 184 146 111
9.901128 -14.233761 34.003933 218 174 134
10.131725 -13.130872 34.818073 242 143 177
10.601093 -10.682144 36.433598 196 116 108
10.671067 -10.274790 36.601734 156 120 93
10.552425 -11.545326 36.120819 225 120 150
10.574444 -11.062173 36.254856 231 126 141
10.924337 -19.885916 37.337894 150 118 90
10.600750 -17.933134 36.230972 198 160 127
10.578266 -17.622755 36.127419 178 138 103
10.169975 -15.461077 34.781918 189 151 118
10.075315 -14.878008 34.441204 204 165 127
9.945440 -14.190051 33.998344 214 170 128
10.009645 -13.839728 34.241924 213 156 124
10.031290 -13.659946 34.317169 219 122 132
10.167600 -12.798885 34.733261 242 142 176
10.274650 -12.560574 35.152191 242 146 180
10.337622 -12.556270 35.292374 239 147 180
10.435092 -12.447836 35.642807 245 148 182
10.437993 -12.277323 35.690609 232 133 165
10.602562 -11.323046 36.199295 230 122 151
10.648530 -18.151382 36.344681 164 127 98
10.504986 -17.140085 35.826775 199 160 127
10.108683 -13.598054 34.455688 235 132 165
10.512984 -12.004378 35.872341 235 132 167
10.510001 -11.950226 35.865150 232 128 163
10.709160 -10.768476 36.499214 202 108 117
10.763413 -10.369062 36.699097 197 160 126
10.840930 -19.046194 36.890259 168 130 99
10.690589 -18.286730 36.355816 180 142 112
10.654801 -18.072794 36.283047 159 123 93
10.339450 -16.135956 35.193577 220 182 148
10.116291 -13.800588 34.384426 224 162 136
10.215508 -13.258711 34.730698 246 147 181
10.245217 -13.018364 34.816994 238 138 173
10.990817 -19.626289 37.300411 178 143 117
10.686660 -17.918724 36.241013 177 139 109
10.070873 -14.539685 34.193066 206 167 128
10.261211 -12.785236 34.812389 243 145 178
10.517583 -12.571067 35.668850 237 143 176
10.743199 -10.816288 36.475372 219 124 132
10.762455 -10.715808 36.562653 233 170 167
10.854580 -18.744213 36.735672 182 146 117
10.500924 -16.860140 35.548740 196 155 121
10.397062 -16.345043 35.216202 193 153 120
10.317915 -15.466839 34.976143 198 159 126
10.300138 -15.284568 34.900307 204 167 132
10.099022 -13.985955 34.203960 208 156 122
10.261701 -13.372812 34.767933 243 143 177
10.298890 -13.121594 34.871323 239 137 172
10.296931 -12.779087 34.867188 241 144 177
10.506561 -12.649180 35.580677 241 149 182
10.685390 -11.234583 36.205124 225 118 142
10.895505 -18.894812 36.838169 163 127 95
10.442886 -16.005127 35.264439 198 159 124
10.107024 -14.114992 34.163876 212 164 124
10.585163 -12.435827 35.805084 233 132 167
10.618248 -12.112927 35.876999 242 139 172
11.115703 -20.219604 37.488495 124 113 104
10.160645 -14.668328 34.214462 200 163 127
10.139448 -14.578514 34.149971 199 162 124
10.101487 -14.203508 34.013962 202 158 116
10.305853 -13.430023 34.709724 242 140 175
10.886751 -10.561473 36.684219 181 136 107
11.005943 -19.269747 37.065456 166 131 105
10.824398 -18.312304 36.373051 173 137 108
10.731956 -17.841244 36.120663 210 173 140
10.470858 -15.863317 35.185036 196 156 122
10.344886 -15.500574 34.780888 197 157 123
10.252601 -13.797539 34.480663 217 123 130
10.395556 -12.991923 34.963993 243 144 178
10.443947 -12.672221 35.162464 241 147 180
10.547555 -12.702558 35.470711 238 144 177
10.713600 -11.836602 36.072750 240 139 174
10.890145 -10.657765 36.623203 209 169 149
10.804155 -18.087452 36.257740 185 147 119
10.719388 -17.569153 35.983627 178 138 103
10.641239 -17.188671 35.717239 184 141 110
10.531081 -16.502409 35.352238 186 146 113
10.492960 -16.238203 35.195328 183 143 110
10.351786 -13.512724 34.687637 241 141 174
10.423792 -12.916191 34.997902 243 144 178
10.674398 -12.497349 35.809772 244 149 182
10.757491 -11.700758 36.098110 240 139 174
10.800236 -11.101027 36.227043 215 111 127
10.892916 -10.726578 36.614803 207 154 143
11.220676 -20.209457 37.515697 124 111 98
11.127131 -19.550510 37.270996 188 154 128
10.747739 -12.223346 35.934879 237 134 167
10.825280 -11.395149 36.255203 237 130 160
10.842089 -18.187605 36.286579 183 147 119
10.757509 -17.338385 35.867474 181 141 109
10.515470 -16.055637 35.152302 185 145 110
10.549664 -15.908987 35.187138 198 159 124
10.754796 -12.153629 35.920982 233 130 162
10.905082 -11.082352 36.414577 212 108 120
10.923242 -18.361235 36.422318 171 134 106
10.580325 -16.224398 35.207733 188 148 114
10.287158 -14.751544 34.245548 207 167 130
10.220153 -14.490205 34.051403 201 163 126
10.378213 -13.744289 34.606636 224 120 140
10.492804 -13.256434 34.983131 239 137 172
10.543954 -13.042154 35.102818 239 140 174
10.703301 -16.847290 35.592339 176 134 98
10.245930 -14.184272 34.075329 215 171 127
10.300231 -14.126184 34.249336 208 160 118
10.365804 -14.049376 34.458576 217 168 135
10.394674 -13.979731 34.528419 218 161 135
10.733649 -12.655734 35.706455 240 147 180
10.784361 -12.494818 35.834473 240 144 177
10.999432 -10.760093 36.606236 209 157 139
11.002443 -10.400726 36.598499 163 136 112
11.276745 -19.555838 37.371632 190 158 132
11.126556 -18.909872 36.917534 185 147 119
10.421159 -15.095323 34.586487 207 170 133
10.936695 -11.519706 36.289398 215 114 143
10.860084 -17.493519 35.940159 199 162 131
10.645624 -16.174788 35.219673 182 142 108
10.310861 -14.617866 34.131817 205 164 128
10.420684 -14.037000 34.487934 214 164 135
10.953383 -12.076346 36.255325 236 130 164
10.969929 -11.738068 36.256367 233 132 165
11.106297 -10.942655 36.735634 200 104 104
11.408477 -19.869013 37.620239 173 139 115
11.216216 -19.245710 37.029442 182 149 122
11.039358 -18.424482 36.441158 188 150 122
10.654494 -16.046055 35.175327 188 148 113
10.645457 -15.980177 35.175159 181 141 105
10.386756 -14.884270 34.303108 199 157 123
10.301417 -14.310513 34.063095 209 170 128
10.875345 -12.299157 35.925461 245 146 178
10.902133 -12.110406 36.030720 233 128 161
10.991044 -11.655506 36.234283 237 136 167
10.986374 -11.391307 36.263603 219 117 141
11.300751 -19.399136 37.224308 192 161 132
10.766548 -16.597141 35.462151 193 153 118
10.333591 -14.220716 34.076241 212 170 128
10.871457 -12.538018 35.820084 243 149 182
11.062207 -11.071161 36.460743 204 99 107
11.194764 -10.823542 36.826458 198 152 125
10.944818 -17.710672 36.016747 179 134 105
10.717898 -12.875406 35.202709 234 132 167
11.055282 -11.184072 36.311512 215 109 122
11.215424 -10.682095 36.874493 188 143 111
10.635436 -15.582331 34.858215 203 163 127
10.605374 -15.232594 34.767387 207 168 131
10.507870 -14.142038 34.418602 206 156 124
10.553700 -14.044818 34.576904 220 162 137
10.565084 -13.924516 34.625069 204 103 117
10.572992 -13.697615 34.660053 241 139 170
10.771520 -12.801806 35.330425 241 142 176
10.785186 -12.774552 35.377205 239 140 174
10.957652 -12.404725 35.917362 249 149 181
11.491947 -20.249628 37.613503 72 63 56
11.313122 -19.121887 36.972279 175 136 110
11.163527 -18.396858 36.493504 184 146 118
10.877356 -16.962469 35.586903 184 142 107
10.695261 -15.819895 34.949951 185 145 110
10.423957 -14.239093 34.102154 212 170 128
10.788855 -12.933688 35.296970 232 128 163
11.005242 -12.121936 35.972328 234 129 162
11.124399 -12.111957 36.348202 233 129 162
11.106771 -11.312259 36.342369 207 101 123
11.265417 -10.941452 36.878025 203 129 114
11.548670 -20.143072 37.676514 174 137 115
11.374446 -19.335794 37.121967 176 140 112
11.014040 -17.482290 35.926987 195 159 127
11.007854 -17.384363 35.906559 205 168 136
10.446506 -14.535362 34.099209 216 178 139
11.345468 -10.790361 36.998478 178 137 107
11.169502 -18.280197 36.363815 183 144 116
10.481674 -14.368944 34.172668 208 168 127
10.764425 -13.436371 35.052456 241 138 173
10.840987 -13.000953 35.299023 227 126 157
10.991746 -12.674422 35.814079 240 149 179
11.108268 -11.715424 36.183266 226 127 156
11.119252 -11.611357 36.230953 219 122 154
10.813727 -16.314054 35.140247 193 155 123
10.874054 -13.093122 35.302830 236 133 166
11.249109 -11.133462 36.542976 210 111 118
11.626350 -19.998602 37.693111 174 141 112
11.152349 -17.984291 36.183064 183 144 116
11.099910 -17.811346 36.010288 175 127 103
11.039167 -17.217468 35.763145 184 148 120
10.578793 -14.878870 34.308910 199 159 120
10.515426 -14.602614 34.115498 201 163 123
10.652906 -14.177977 34.540924 214 167 132
10.737303 -13.641670 34.755600 235 132 167
10.893780 -13.273846 35.289200 235 133 168
11.042213 -12.743724 35.783016 240 147 178
11.176775 -11.842525 36.224106 238 137 167
11.363544 -11.038681 36.854927 197 119 106
11.428349 -10.810208 37.011585 193 155 127
11.425255 -10.724679 37.081345 194 161 137
11.077164 -17.533779 35.862232 191 151 121
10.988401 -16.796907 35.539249 188 146 112
10.910062 -16.487518 35.305935 170 132 99
10.793601 -15.809995 34.897873 197 157 123
10.748631 -15.281501 34.755810 197 156 120
10.590307 -14.270437 34.243008 209 165 125
10.920187 -13.002454 35.343262 231 127 159
10.625918 -14.831229 34.308037 196 157 118
10.821791 -13.853354 34.899948 239 143 176
11.104005 -17.213343 35.779388 201 165 134
10.865582 -16.133261 34.960880 198 162 127
10.591036 -14.505211 34.124935 197 159 120
10.987768 -13.153759 35.387081 243 140 173
11.632374 -19.394602 37.408524 174 138 110
11.352436 -18.216713 36.443359 191 154 126
11.340166 -18.135014 36.405388 188 152 123
10.958324 -16.399626 35.241779 179 140 108
10.823486 -15.531872 34.769127 192 151 117
10.641653 -14.672870 34.210781 206 167 127
10.646407 -14.395226 34.229317 211 172 129
10.712167 -14.256059 34.394905 212 166 126
11.140188 -12.764768 35.793835 236 141 172
11.209112 -12.735912 35.987331 240 149 179
11.251127 -12.364941 36.172501 236 133 166
11.392979 -11.330746 36.597595 226 122 136
11.208106 -17.787687 35.990383 172 129 104
10.844084 -15.299070 34.776119 204 162 126
10.824136 -13.538663 34.690884 236 133 168
11.000558 -13.244413 35.287075 242 141 173
11.063274 -12.856536 35.462360 240 141 177
11.236620 -12.670505 36.058254 233 139 169
11.406624 -11.457074 36.575680 221 118 135
11.549497 -10.810254 37.053623 201 165 142
11.185637 -17.137875 35.800117 199 162 131
10.826040 -14.083287 34.651978 213 112 129
11.047564 -13.187818 35.327789 242 141 173
11.571908 -10.996037 36.985588 189 142 109
11.575959 -18.946907 36.941021 186 149 123
11.200613 -17.012175 35.756348 186 149 116
10.884117 -15.201844 34.757435 203 159 123
10.720461 -14.616275 34.213749 200 163 123
10.906393 -13.911882 34.842323 240 141 174
11.434432 -11.766957 36.513592 223 124 153
